ply
format ascii 1.0
element vertex 697
property double x
property double y
property double z
property uchar red
property uchar green
property uchar blue
end_header
0.5752520466498514 0.3051610258944485 1.5751557369399707 20 26 24
0.5858543299672075 0.2330562847723679 1.5947679327195010 90 100 112
0.5364851267455845 0.2186970477800409 1.5642711065184940 150 144 128
-0.3193981587112937 0.0652698498070088 1.3469356465812534 75 61 61
0.5941782735097463 0.0894100856616499 1.6364127552882017 57 71 97
0.5843930870413332 0.0772860568687467 1.6324352920358272 108 126 136
0.5235811110385723 0.0710587919712105 1.5895380872400300 111 87 83
0.5362556289460685 0.0631686635239013 1.5983530649105848 169 167 155
-0.0835069048960644 -0.0645281778716531 1.5129693929011809 135 137 136
-0.3027088696082507 -0.0897067340570472 1.3975249109362644 129 128 124
0.2533166984179435 -0.0477893603938662 1.7054692211253073 79 102 143
-0.4118905533520029 -0.1326380615536797 1.0936838653220422 100 117 133
0.3590569215728459 -0.1738600232791317 1.9129392631260089 99 99 109
0.3587194499654787 -0.1945936365520954 1.9170615253157266 84 76 89
0.5410094623196194 -0.2154518549051096 1.7778818985098153 55 62 80
-0.3691892362103016 -0.3465216759649412 1.2927846865808204 64 75 105
-0.2734492686728301 0.2933025943672354 1.3195863172173219 75 84 99
-0.1832579921523422 0.3046292563997022 1.3729651424473241 78 93 100
0.1861077968766010 0.3489263919858125 1.5707098093409715 86 94 105
0.2736742375456383 0.3599061514280725 1.6219755851736546 83 96 105
0.2570930706293327 0.3577418420465675 1.6128505080720770 91 100 109
0.4322034127583105 0.3649021767469627 1.6392447502431076 85 95 107
0.3160490653004742 0.2069826867768449 1.6775773231162070 94 77 70
0.6547807962559589 0.1819702677592556 1.6442752818238426 89 72 62
0.4032807614582719 0.1709716234421555 1.7280869891254305 129 132 141
0.4385259106200911 0.1345231364141735 1.6794570583856632 115 115 105
0.4391685523781280 0.1039744545217537 1.6844478361911297 110 114 100
0.1904131043968751 0.0466920829566009 1.6427805137850791 140 132 113
0.5550339431778691 0.0645000765306271 1.6085437094469719 164 158 144
0.1309839091175635 0.0141853749179090 1.5687127981990097 117 106 100
-0.3557559980066032 -0.0435341955815169 1.1164695097208672 153 152 147
0.2530118969634340 -0.0378812546167626 1.7029830531967491 70 99 139
0.2389067998010158 -0.0564200128477789 1.6982939032424667 131 125 111
-0.3687163470782195 -0.1229030689075683 1.1099121290720493 143 130 111
-0.2408465582809922 -0.1234731155801732 1.1894504448228775 29 47 71
0.0537632643454431 -0.1518920749591611 1.5995916967306905 48 64 90
-0.0910834232000420 -0.2727876410183075 1.6974720822777054 219 246 255
-0.0128057866075143 -0.2877503441186387 1.7803893553328225 158 190 215
-0.4388417206644440 -0.3286447124674390 1.4771818860347914 239 255 254
0.3571107431498678 0.3682179589344133 1.6579594027254227 73 86 95
-0.1150176379625529 0.2914711908297375 1.3599934708723733 28 31 50
0.2598812462716281 0.3467532959525088 1.6086802545567538 46 54 67
-0.3547232932653629 0.2156488765732435 1.0559280719423612 165 156 127
-0.3218952139042234 0.2538585698173084 1.3034619970581138 45 43 48
-0.1366195521282070 0.2516887425964363 1.4107982295106989 106 102 103
0.2996366205553100 0.3040438156331930 1.6464796467241385 108 108 100
-0.3243213097637983 0.1866632276992256 1.0914328611588724 119 135 148
-0.3159453394573042 0.2087730871072172 1.3180626594746765 104 108 111
-0.3243418733329581 0.1667001584226582 1.0957947443243050 120 133 152
0.5470436379806648 0.2632163329805822 1.5610965656945732 102 79 71
0.6234570634030264 0.2719347615662351 1.6021862651285903 125 123 111
0.3204608910661370 0.2626114092239644 1.6682188630878796 111 114 107
-0.3160093771827191 0.1863476605298539 1.3233193001774661 113 115 112
-0.2468495155941783 0.1729366836810958 1.3652572686601716 113 109 106
-0.3152844579463291 0.1648210971530133 1.3275222243249278 116 117 109
0.4825251642028681 0.2084685452447756 1.5772645565340375 118 114 105
-0.3159767453501471 0.1430698620319212 1.3329830122112030 107 107 95
0.2990856594315954 0.1781752128661939 1.6743035482832265 127 115 101
-0.3148106224281710 0.1070517032761182 1.3409128086880868 116 113 108
-0.3212179570607987 0.1041993007971774 1.3364347212734120 73 60 52
0.3559571697413273 0.1722453865937672 1.7045587528119719 105 105 105
0.2488376095285380 0.1524391783746428 1.6495316390963515 57 60 75
-0.3467080232015098 0.0628222350620996 1.0923706239383781 153 145 134
-0.4087221510238889 0.0491390471500161 1.0675949725674101 136 133 124
-0.3155276961260475 0.0754524796330605 1.3471998889509551 120 126 114
-0.4127960127033751 0.0400339016836057 1.0664897813623335 255 254 255
0.2994862211095261 0.1271000031274230 1.6852682708617319 141 134 124
-0.1365877181512197 0.0751675510806244 1.4501147142250741 141 139 127
-0.3154974701729190 0.0536785910427190 1.3520092652380262 130 126 117
0.5549897020291287 0.1084634811221294 1.5987636281488848 162 157 137
-0.0844444290044591 0.0217139703902894 1.4895389051576229 67 69 64
0.4055443278814905 0.0499753388098914 1.7479740563351420 122 124 119
-0.3138661468036743 -0.0475553937484001 1.3736529136701512 133 121 97
-0.1809698329479266 -0.0507009787732369 1.4356993447006912 140 131 114
-0.2072043287976621 -0.0534374548867489 1.4251517420322017 136 133 118
-0.2539423191947745 -0.0585349092540180 1.4014537163100427 139 128 106
-0.3033074971909444 -0.0636757981960086 1.3713639191438833 130 123 105
-0.3881675227165169 -0.0782661219758732 1.1025719397737801 98 87 93
0.2947088795660150 -0.0254980707261111 1.7236403144224188 48 52 77
0.0981921908661478 -0.0425842937637767 1.5630368733451960 61 65 74
0.6740918985931054 -0.0053539141345024 1.6907505580947513 75 89 100
0.3356643179470161 -0.0585944560434628 1.7425913692907689 127 117 108
0.2021899764336368 -0.0872897904139713 1.7413152379141641 88 98 123
-0.0784405136790491 -0.1073353343928846 1.5202195380553392 128 122 108
0.0840663433843211 -0.1020814827280846 1.5653007980512352 133 126 118
-0.0924950189890743 -0.1451915041101659 1.5984722482507927 121 141 152
0.0801706327239857 -0.1299709787921603 1.5639178381140850 152 145 126
0.3124037867769328 -0.2285299470411988 1.9822646518851776 255 248 235
0.0628318644717003 -0.2302354812448240 1.7558943087290733 140 142 141
-0.0334234543569312 -0.3101294295329629 1.7537380078884026 39 48 53
-0.3983820284792993 -0.3321379431246003 1.5191560428225590 123 127 139
0.2348996857236259 0.3749662863096430 1.5160147628036389 34 31 42
-0.2806772058331116 0.3013306318430176 1.3247434893032586 20 23 42
-0.3163538508024967 0.2517460212529866 1.3085653526555350 93 102 101
-0.3445163690046245 0.2006782357231241 1.0665331742658744 162 152 125
-0.3285121455946995 0.2024694557916829 1.0853182546065763 12 17 36
0.5669632797778011 0.2806114582656302 1.5686009412985475 124 118 106
-0.2624197323313077 0.1526008488281812 1.1240505847077105 148 128 104
0.6248938353340521 0.2178900010337113 1.6142162447902082 103 79 79
-0.1318065640951895 0.1536728375196670 1.4325035941747630 118 120 117
-0.3129087875003261 0.1323949492962099 1.3368916489217610 112 105 97
0.3957644178583081 0.2072871049440459 1.7191175888276278 105 109 108
-0.4092600655625339 0.0776405602312295 1.0620621115762838 94 86 73
0.4891659398168158 0.1685804405091436 1.5755325896884416 86 76 75
0.0709270971726653 0.1289386772360361 1.5066494757583950 130 125 103
0.2850564865176925 0.1419899502622238 1.6713885461228888 55 64 71
0.3886314354987710 0.0944976658817402 1.7436806577220094 119 115 116
0.5762483766124984 0.0757540148333276 1.6239659698793252 96 108 122
0.2991944864998357 0.0624129982058796 1.6997541091273229 147 135 121
0.5579851837821135 0.0541325712511056 1.6121529016461396 162 153 122
0.5153777159287454 0.0489064778323388 1.5892965592996811 157 154 137
0.6056929381580725 0.0547092217704563 1.6425607408359615 87 75 51
-0.3217913807854320 -0.0150322131022423 1.3629765352121179 73 63 62
0.2994042161901747 0.0262180583543182 1.7068128082925411 142 130 118
0.5210007849984339 0.0123916259001987 1.6001102356355148 117 96 91
0.6140365029683871 -0.0747781272625565 1.6699965848326952 138 131 115
0.0534060348406764 -0.1433293859733402 1.5618275945113749 71 75 76
0.3577212534319930 -0.1423602982068949 1.9054361242469180 141 151 153
0.1061811915899584 -0.2279641451323092 1.8174322884675873 40 61 80
-0.4424810729478339 -0.3221885000029378 1.4673731249081836 137 127 164
-0.4425000919020024 -0.3300163068245867 1.4615621325052779 158 156 161
-0.0469352920923542 -0.3531997495134718 1.7646508018674074 28 40 52
0.6774215938252104 0.3928125127398598 1.5986137687420587 56 61 65
0.3686021038290124 0.2791005389043614 1.7010134401003021 80 92 118
-0.2726943557512450 0.1523791504058975 1.1195861662269340 138 122 96
-0.2653412705715381 0.1433134613315271 1.1130150906578078 146 126 99
-0.3715617257165286 0.1302304333744295 1.0561983879641861 154 133 112
-0.3878135615636585 0.1257215203084441 1.0564429766610426 145 149 126
0.3006357528851686 0.2018620046711044 1.6713836301065885 54 48 36
0.5179012002241444 0.1403473202240892 1.5682354119411148 83 85 84
0.5050975845266482 0.1356578661479549 1.5601290537451284 145 141 132
-0.2017550524145612 0.0735480551185353 1.4262922626618399 50 76 99
0.5666975578785173 0.1260738419611609 1.6003695778332585 151 144 126
0.2300453055950226 0.1111807426495728 1.6503939609952329 85 74 68
0.3192423772040268 0.0992696403066341 1.7039554562372679 98 75 69
0.7682628783042275 0.1103045623925716 1.6703074013098034 69 65 141
0.2962168350097473 0.0726004134073568 1.6955020144499926 135 129 115
0.3718396387029115 0.0757753496975381 1.7417338288344921 60 57 50
0.6235311143066333 0.0808434239473760 1.6446097549755385 103 81 83
0.3045223161385126 0.0619504093227561 1.7032832550908306 102 83 79
-0.3718634176685026 -0.0240017999343070 1.0902778136069167 140 131 124
-0.3119678808762934 -0.0226683988479911 1.3693625821707587 128 115 98
-0.1036579541830117 -0.0241144516640607 1.4842331206776549 152 146 124
-0.2661100742357980 -0.1042759221336604 1.4183624272014752 129 126 117
-0.1740427245068143 -0.1305919883149451 1.4670443940851636 132 124 105
0.0888844912878127 -0.1267140005035235 1.5684668794145045 36 55 72
0.0619653709823617 -0.1896397072232464 1.7460638993208704 126 128 140
-0.3835134802314092 -0.2290583516355464 1.1926968414817845 136 165 169
0.0728600509573335 -0.2311465774600916 1.7608135388811437 129 131 128
0.0201994818003837 -0.2445958274312938 1.7250813092151935 59 70 92
-0.0314845430424220 -0.2506819286615246 1.6956912719106620 81 93 117
-0.0928099478282747 -0.2586726584467450 1.6728020298696120 140 148 150
0.2490867795600991 -0.2517944460473964 1.9220971751399909 97 90 123
-0.3764514001223894 -0.2650628754344739 1.2270177916263789 95 119 121
-0.3752975713208000 -0.2709614717249552 1.2311695544372496 137 161 165
-0.3661732097668600 -0.2935482518346819 1.2548614344851190 39 62 96
0.0778337467316775 0.3222278924046427 1.2779950326296778 29 51 62
0.7209082323581854 0.4229219782538022 1.7539799564131140 255 255 182
0.6039239385532724 0.3585061068990038 1.5749943797801915 13 27 30
0.0557928844832241 0.2833581496290004 1.4759666887449170 54 61 69
-0.2856216269065046 0.2006886986898402 1.1020044104080979 71 64 48
0.5489969189570272 0.2436696078578434 1.5671000590354405 89 75 75
0.3006512072024253 0.2467999614262459 1.6608661823505668 58 49 50
-0.3170219865348090 0.1571423054717202 1.3286652063157407 51 47 48
-0.3556485583535364 0.1042990082906005 1.0826681935600995 53 53 55
0.5204917617375600 0.1959896105205678 1.5587405013675653 145 139 123
0.0992329020077458 0.1634352736902766 1.5011353351499894 50 46 34
-0.3119400490474035 0.1134480674908676 1.3384964693829762 116 102 102
0.3897712384371482 0.1523110773322706 1.7316148920565038 74 60 73
0.5436191461748199 0.1438894887502617 1.5780824710198491 92 91 89
-0.1240922543741825 0.0916238575216109 1.4506055608464028 145 139 125
0.7651434511611291 0.1534416458077136 1.6570864211244418 81 72 165
-0.1375162191261711 0.0779401997238367 1.4481094114787143 147 138 123
-0.3566957317766685 0.0184158515030030 1.1018170268235938 148 149 151
0.2303205653956082 0.0901647628119945 1.6550837772447102 98 80 70
0.7701496269021439 0.1150895614054374 1.6673410713420356 230 255 255
0.2997420449773771 0.0767694227860268 1.6972774697571373 99 80 76
-0.3701897329002342 -0.0116764754222951 1.0963274924451614 103 98 105
-0.0666627066249371 0.0116151992776813 1.5016622850965602 92 78 69
-0.2884088488944065 -0.0220258195569683 1.1486108233460413 152 147 118
-0.2511077073643109 -0.0280124192645506 1.1701890532179839 154 148 148
-0.1289663580321028 -0.0197662228881773 1.4715332556189227 92 84 82
-0.3569265663825980 -0.0464961437481510 1.1162135096100598 153 152 160
0.2540062343292932 0.0079884623293754 1.6739859516769282 76 71 49
-0.3893868377296695 -0.0729556730585626 1.1029422303807495 143 155 135
0.5603442865993555 -0.0059650429163328 1.6181453992045343 105 84 53
-0.1782099712137745 -0.0610064701168607 1.4618618979751012 120 133 150
-0.1259036015960544 -0.0576337656201682 1.4856157370811462 50 78 102
0.6193595582797372 -0.0093291876185106 1.6465630219855016 70 81 85
-0.3043424365017754 -0.0774588281712511 1.3861741788924924 20 40 65
-0.3045383260193934 -0.0774274398877842 1.3864093386026426 20 40 65
0.2594686733924531 -0.0391773221119599 1.7126299617140250 111 130 160
-0.3098830313151617 -0.0917431304363258 1.3921499010076110 31 46 65
0.2892451529776484 -0.0656281537574549 1.7189156828947090 130 126 115
0.3518439410628116 -0.0640573520649488 1.7590607625325676 97 90 82
-0.1739751293663104 -0.1005595772230799 1.4699999541398867 110 102 91
-0.0849532352640675 -0.0940603981483568 1.5174726156547866 125 128 119
0.5553393992811805 -0.0529400302030424 1.6543987951738317 37 56 73
0.6152124493387398 -0.0532796200991290 1.6774041378375792 37 48 70
0.0354847548553914 -0.0986770527134830 1.5377052872423533 120 110 98
-0.2902519623355353 -0.1277853625344740 1.4080074488595988 77 70 54
0.2844439330804819 -0.0911006161148931 1.7980214646887172 31 54 72
0.2808900626713359 -0.0914762128140577 1.7934526854138428 38 54 69
0.0375579233366570 -0.1293681266378489 1.5464312470262704 102 95 87
-0.4011085688883804 -0.1664323969191585 1.1334127052274379 116 136 147
0.4207814752378573 -0.1467445656092389 1.9368445829080532 42 60 96
0.3556403503815170 -0.1544802952419594 1.9068855588789597 144 151 161
0.0736064024161344 -0.1750304779469324 1.7485003809902706 33 60 81
-0.3914779145250228 -0.1855681675487635 1.1530284051769315 123 151 155
-0.3946918731161039 -0.1996047027934621 1.1652144743882575 67 87 112
-0.3894285763489534 -0.2219518643918548 1.4967049997405344 58 63 82
0.1104647109714822 -0.2274543835145920 1.8234209228519644 99 113 140
0.5391729516693877 -0.1875614986335551 1.7519498743106556 37 50 94
0.3528095155828452 -0.2229091634424770 1.9185168428697654 83 69 102
0.5346848794358692 -0.2015497241920711 1.7603524704948763 104 82 164
0.5361187021607885 -0.2080793890910768 1.7675991155670601 72 54 138
0.5354096738805006 -0.2190515558592790 1.7737722764912605 81 52 108
-0.3811604626547508 -0.2703963902831304 1.2301716609399613 74 88 99
-0.3753379030431604 -0.2801822985040329 1.2408876419611043 136 157 162
0.0970374190081959 0.3135622721873300 1.3240841741750635 37 53 69
-0.3228671881249837 0.2947915905313437 1.2898539170522549 91 93 108
0.0844806792529576 0.3036008049541354 1.4222078527453721 111 121 133
0.2080864696861245 0.3338915642150198 1.5808916110685207 107 106 120
-0.3176634337960686 0.2338917118746077 1.3114196459383454 108 102 114
0.2108042695933626 0.2865146216544714 1.6008395237361315 62 57 63
-0.3922202577207614 0.1662890661496347 1.0504723865994205 61 55 29
0.5188605868324576 0.2519535711726777 1.5468384436107523 69 58 66
0.3004587517367704 0.2539470633226746 1.6599408470833856 41 43 42
0.6279757717894208 0.2526009111384503 1.6110418681704106 86 65 74
0.3186750101697077 0.2369499466987437 1.6735387173224416 138 134 125
-0.2467073654268245 0.1661876709338813 1.3682300425841480 52 52 44
0.5358008473403032 0.2062079770156462 1.5675158397631801 77 59 47
-0.1566416988651506 0.1305463816906527 1.4262867831568182 58 58 48
0.6382008799052206 0.1828703329393818 1.6314396576429868 60 53 47
0.3062105268960978 0.1683223311575714 1.6737840348835613 120 114 114
-0.0683469630975114 0.0831563742101551 1.4864598290672790 115 116 110
-0.0466917283804221 -0.0281319821104566 1.4895452622946630 68 59 52
-0.1348107863907974 -0.0253766353505082 1.4702088380622262 141 134 115
-0.2859556990523384 -0.0139197034977768 1.1480681291278620 155 163 166
-0.0314075440284585 -0.0140220893826448 1.4782227772556036 152 145 127
-0.0260313654884892 -0.0047706123035399 1.4781779085033750 116 106 97
-0.2475588460980579 -0.0031210806350545 1.4031255911661555 138 134 109
-0.2254658914198270 -0.0003350086337835 1.4149598226086806 144 135 128
-0.1845443821583597 0.0025143859143156 1.4373042031540688 138 134 123
0.1092095897101955 0.0120180587050508 1.5469920742951013 105 96 87
0.2078654329728545 0.0146820663931033 1.6582986645543143 144 139 119
-0.1356552566883902 0.0098940701536717 1.4639364853100025 148 144 135
0.6552789990120186 0.0280746781023083 1.6770770304097218 128 106 95
-0.2475582818256159 0.0184786085903327 1.3996638003498603 139 130 121
-0.3853908422280322 0.0207035495040450 1.0858385888049475 84 73 77
0.4983289446946458 0.0417925265085175 1.5886818062058772 152 152 150
-0.1358953174921989 0.0321535282908674 1.4593172733289308 142 141 136
-0.2458913452363455 0.0307511938180765 1.3977199166083456 83 73 64
0.4474393835268496 0.0499450508720813 1.6800472967868372 100 88 88
0.1831342154724086 0.0461895074960205 1.6348914120640248 140 133 114
-0.2473583235411374 0.0400420424892719 1.3942028233109773 137 131 117
-0.2256506411100654 0.0426374594364502 1.4051244930096947 134 130 118
0.2785039009714478 0.0575858765522345 1.6882204817627631 150 143 125
0.3932992064270666 0.0633299489905004 1.7535815365099419 78 63 58
0.6535280875829820 0.0679380851769998 1.6645628608619214 87 70 63
0.3465244205010626 0.0660019355841645 1.7248663857147630 140 132 121
0.2131585376021305 0.0638085404017850 1.6510084898579807 114 85 79
-0.1360490346291527 0.0533772435385288 1.4541115020572832 147 140 130
0.4478303474079524 0.0701282118136521 1.6743757157140753 77 67 68
-0.2283405067611821 0.0530102434307100 1.4020823671792457 79 69 80
-0.2983005979510116 0.0453484703241212 1.1222541144061740 135 131 120
-0.3916057992646344 0.0467956414748733 1.0757308927736673 141 133 120
-0.2255592348215414 0.0637991669101492 1.3998116007771650 134 131 122
0.6537922885577901 0.0883908623057708 1.6597821776332822 128 110 106
-0.3542997288857249 0.0512310493216795 1.0946879237130358 135 128 110
-0.3461742889977782 0.0551368144637385 1.0988562674250040 81 92 94
-0.2850255832470320 0.0598142598038554 1.1317313699941718 148 136 120
0.3170084695067171 0.0971404983217325 1.7039796853773492 87 69 59
0.5493604802037457 0.0959956276345536 1.6007430990124103 63 45 33
-0.2498899079601842 0.0636819871038012 1.1514434611720272 149 138 118
-0.3531108573624671 0.0621142544810465 1.0864749644974563 57 59 72
-0.1556141923689601 0.0835580977549345 1.4377162664999104 74 69 65
0.4473342075933331 0.1108522100317555 1.6648460215332446 97 82 85
-0.0102693650292693 0.0956096714402349 1.4697281505700530 116 105 99
-0.2514940554708281 0.0739738515127331 1.1467506359403721 83 71 73
0.1228667898800913 0.1143191036765956 1.5394003761252464 107 100 90
0.6181920155529235 0.1370845819840776 1.6277655094789576 144 139 120
0.4923166986152387 0.1369879282836795 1.5771166214964119 141 140 145
-0.2244121860442781 0.1158377889168311 1.3887631528680171 125 116 101
-0.1356650110520379 0.1263535144119229 1.4381019252890084 128 122 106
-0.3946059427719808 0.0952055179677829 1.0621070923331626 144 141 124
-0.2433272709672336 0.1233854683688100 1.3780663017566575 83 73 71
-0.2276750741426709 0.1257006385708610 1.3856702538752206 59 58 54
0.5548526030457519 0.1604811360826946 1.5876883623760871 152 133 101
-0.1398988990725871 0.1355803614513651 1.4342199919237311 93 79 76
0.4027611310924211 0.1715113973667722 1.7330414772204070 129 132 141
-0.2893730352632773 0.1074194532921274 1.1194906048010231 153 147 125
0.4890652445263928 0.1655651278355880 1.5753256795741355 99 85 85
0.5219655773212513 0.1808613860038673 1.5629255238218649 102 79 71
-0.2471063416131348 0.1509543927391657 1.3696330998961816 121 121 111
-0.3955177182107021 0.1178235927198096 1.0571256318393050 155 149 133
-0.2256713988935059 0.1535357522643001 1.3810519258134699 119 110 111
-0.1571540704837656 0.1614451604330892 1.4178230375542953 121 124 117
-0.1358556555953539 0.1640701585243324 1.4298567112447422 129 122 116
-0.2894285149980502 0.1296200194119115 1.1146189286672674 154 145 128
0.5541535110769571 0.1978887269160464 1.5798811238239152 144 133 111
0.5996868043170440 0.2043973446234693 1.6045110874354489 137 127 100
0.3938254978562901 0.2162357536990013 1.7197676465762883 63 54 57
0.1663940325354775 0.2000918801516725 1.5913087794221117 128 122 108
0.1856499949265010 0.2024190698613375 1.6015887937675577 127 125 113
0.2753872780806120 0.2143066642576102 1.6517269855844066 126 128 117
0.6297034383504572 0.2191912353724834 1.6193441089099732 50 34 21
0.6295348102886051 0.2193708971912125 1.6197556476346231 50 34 21
0.3465860162707319 0.2228019518734591 1.6908530801613160 116 111 105
-0.3948235609187507 0.1396505307817050 1.0525459608500431 149 143 129
-0.3241715557533764 0.1469161687424003 1.0999604497827897 119 147 169
-0.2446966683728237 0.1847863714032096 1.3638633460187906 68 59 60
-0.2894613901704462 0.1516549010918581 1.1096397262226623 148 140 117
0.5239988740004362 0.2247269711025839 1.5558634097436943 88 66 53
0.3935125996510561 0.2596463150623421 1.7099724811056323 72 60 64
-0.3950778122233974 0.1614601310426430 1.0479414733176602 156 152 127
0.6281236762778245 0.2615361246954937 1.6085999744630104 106 86 79
-0.2463226983310283 0.1792453375973932 1.1285704937696956 148 142 128
0.6403359333380624 0.2738871837989077 1.6125006864976634 123 114 105
0.5180531578530572 0.2595488677990258 1.5456393507426296 138 130 127
0.3936752150612995 0.2830583613444505 1.7051390547215910 70 54 57
0.5365220771216501 0.2626360136197455 1.5544865550949380 122 116 94
0.5184579933669603 0.2813005759587962 1.5408505293649011 129 131 126
-0.3954247136123527 0.1833909054979110 1.0419213001269061 163 156 128
0.5211549771892064 0.2917120444920345 1.5384188567663091 89 69 68
-0.3557020554946771 0.1982520195246866 1.0619741305345007 164 155 124
0.5955949712267032 0.3078479432000062 1.5877150850114572 33 30 25
-0.2500359460855286 0.2106008623584535 1.1187252453963357 141 130 124
-0.2553528234720524 0.2129887513700764 1.1142361702049948 80 61 57
0.0017510034027704 0.2754976084677346 1.4290285063752985 66 69 62
-0.3487644042808157 0.2127713882296811 1.0610361177901741 111 85 60
0.5056317520981248 0.3180241386900981 1.5228164519971998 121 125 128
0.4906644870091056 0.3249162493270275 1.5469035099895263 105 118 127
-0.2339195313785508 0.2299153020190768 1.1229362717912141 134 143 150
-0.3937806211549599 0.2205373493701591 1.0300060350714211 157 135 111
0.5976278494300385 0.3501493198966811 1.5749382840900905 114 120 134
0.4745468913771360 0.3485115090879090 1.5654119119931995 99 109 119
-0.3192442958748417 0.2396961291201672 1.0699714773715514 143 133 123
0.3588160451764434 -0.2409215060133504 1.9236822624010164 60 62 75
-0.1639939679683941 -0.1501421650161806 1.5578767323879810 43 50 68
-0.2489623505367146 -0.1084833062779533 1.1776127737925117 156 144 120
-0.2648214977130768 -0.0658413140775652 1.1718357022600894 84 71 65
0.2632817388206452 -0.0938973723427777 1.7861433702457126 41 51 76
-0.2516580197235020 -0.0641863478817499 1.1769803221330251 73 61 61
0.4934303981149937 -0.0820391397854767 1.6894840055633706 88 106 154
-0.2498694821364040 -0.0315302842263781 1.1726863273120178 157 154 145
0.3876262745827639 -0.0009024554615642 1.7734523608853665 32 44 70
-0.3550473229164167 -0.0002601958057900 1.1061723789129168 151 153 142
0.1231233921118098 0.0065318764933496 1.5632885791525781 161 150 132
-0.2862149434977493 0.0083154349980263 1.1433233173048276 158 156 143
-0.2495528774058285 0.0127673993276385 1.1629375711615979 159 156 151
0.5248904222732137 0.0307499411393361 1.5979161324420132 139 106 99
0.0521320500954791 0.0505028047327213 1.5242261468490568 105 120 141
0.0519153950416515 0.0505775451523877 1.5253128345981319 105 120 141
0.6293119092081561 0.0647705145398779 1.6514338263922468 96 78 68
0.5602054806681073 0.0650860808676166 1.6127937205130662 163 157 141
-0.2592960290428907 0.0419759278469147 1.1509650286203468 154 156 155
-0.3347981654237299 0.0415473180220129 1.1024372853859634 137 135 122
-0.3110242284781173 0.0440253017437305 1.1144872750909418 134 142 145
0.4399977235717303 0.0799013857495584 1.6813346081576090 120 118 106
0.5604832230051329 0.0872883263774377 1.6103784469379414 164 150 137
0.6532382609348395 0.1072336275909378 1.6529236679891319 124 100 100
0.5608524330000725 0.1074122859448590 1.6045963133548358 154 148 136
-0.2833367643814328 0.0703419700432387 1.1328011345060105 102 86 86
0.2049591899588881 0.1349730021413639 1.6277665994692203 135 125 115
-0.3549247521826053 0.0891352790832923 1.0868810920128351 155 143 131
-0.2859823142359192 0.0968602389592911 1.1235372144228326 152 145 126
-0.2498447725863250 0.1019706668940930 1.1433892532042598 153 145 122
-0.0315175403478026 0.1345711357483749 1.4437512243282271 144 139 135
-0.3548110153252213 0.1109819436425609 1.0817585820927336 150 138 114
-0.2435505615072158 0.1398308231267413 1.3739960558523239 93 83 92
-0.2859299128929591 0.1191076664042576 1.1185808668053030 155 144 126
-0.3335133556072117 0.1240881086416711 1.1002957177617858 106 114 127
-0.3915150007361098 0.1289818012297021 1.0571481854240106 152 150 135
-0.3547822429516897 0.1328820253834344 1.0767068882005340 155 146 129
0.5246663772740375 0.2053757967532775 1.5599518624653017 124 102 91
-0.2865175384902194 0.1408200141915150 1.1143555676903087 156 145 123
0.4126263827678923 0.2256770298871948 1.7047826657339429 110 115 118
-0.2498593305936179 0.1458373347173464 1.1333722846040581 151 140 122
0.5612612349639967 0.2195201131146759 1.5786912556037977 138 130 117
0.0901978978717416 0.2033479660767464 1.5003376311054557 134 127 119
-0.3912183303679597 0.1507423539293893 1.0524304654326968 160 148 132
-0.3840431138055201 0.1521051918873788 1.0563347548608970 79 67 55
-0.3548339450725718 0.1554061305428991 1.0720478222783560 158 143 122
0.5613322361757828 0.2414901572594362 1.5755314537502256 137 123 110
-0.2859350167450334 0.1628735100087218 1.1090176162011192 156 145 125
0.0904084163409004 0.2237470591633552 1.4966570107875001 125 121 118
-0.2568165224582600 0.1670023680971824 1.1248761670992999 73 61 49
-0.2498692153056039 0.1677576944622431 1.1289031327138985 150 142 129
0.5489141475531183 0.2500807977424040 1.5629767100426406 93 80 71
0.4479710645224724 0.2643914859610547 1.6316186596527720 71 62 67
0.5614414584947225 0.2648916144409742 1.5693085273512442 130 124 110
-0.3549477168021635 0.1778167166313110 1.0672660729235290 159 141 117
0.5245166407755915 0.2707708178350282 1.5457841476806735 90 65 60
0.5475858884564018 0.2728354374730866 1.5592420822765338 94 70 60
0.6307426783038901 0.3419134888316337 1.5863435120706113 63 62 68
0.5491117430200084 0.3330164602337809 1.5442380575773000 80 75 81
-0.1731685191564767 -0.0890890207473162 1.4690079986651194 135 131 128
-0.0837824356942889 -0.0787746070844908 1.5174815159000941 142 145 136
0.0634797857372510 -0.0726239825626653 1.5563447491892934 63 94 140
0.2420850707802401 -0.0232639034935265 1.6890769497775726 154 154 142
0.2845680859733118 -0.0218275176561318 1.7135367890403845 147 144 135
0.6862384017981289 0.0020238812746950 1.6882710398643279 133 117 101
0.2201827955281349 0.0196113963310552 1.6647097551213361 123 95 91
0.2899268920062419 0.0267112161552585 1.6999733998173772 139 127 115
0.3092636886983436 0.0313736209869905 1.7134105581327994 112 88 84
0.4565507820527483 0.0510610861639837 1.6636193649001185 141 142 136
0.2035636048222218 0.0539251498471275 1.6456984513713588 150 136 123
0.3102337276586198 0.0580032141000216 1.7071949345261963 91 81 71
0.4383509199589400 0.0598537759835739 1.6887833527858465 132 134 131
0.2926859006196447 0.0621917631161566 1.6957362227946484 133 124 117
0.0622956333224771 0.0633272714688298 1.5283038772281796 54 75 106
0.3095984602451421 0.0761103351126830 1.7028307373830247 87 69 67
0.3095663677052878 0.0757074499044135 1.7019813530912906 113 85 82
0.3271268668192955 0.0874252208204646 1.7122803581111929 146 139 131
0.3095363402331971 0.0943059399901985 1.6995229509132472 105 77 76
0.2035933499898117 0.0946257954701862 1.6380996301238133 145 132 115
0.3270698696299397 0.1089913004690029 1.7077358484072880 138 135 128
0.6140628045738571 0.1168227182210193 1.6323530186181530 147 134 118
0.3098029554875193 0.1169788864611904 1.6945245375026183 94 80 67
-0.3893030267769027 0.0749389996087799 1.0720390830461544 99 84 79
0.3271649307932407 0.1295134689947647 1.7025196962922340 132 127 123
0.0425450644296171 0.1145032286948317 1.5011180413219589 54 69 88
0.4133955139081056 0.1387793274459277 1.7188515861094498 114 117 122
-0.2835507587957599 0.0868299245993696 1.1283694974990106 83 67 54
-0.2515795595380473 0.0897494783722189 1.1425767830473694 118 90 79
-0.3107475223736548 0.0959003807138058 1.1102086968349374 155 144 122
-0.3921008174004387 0.1070273933564633 1.0623161888621853 154 165 159
-0.3838172957011390 0.1091144238795045 1.0662563933200984 64 60 51
0.3099655759245195 0.2088588595681748 1.6736759022088246 77 66 64
0.3822448248314735 0.2277361635969072 1.7097530132433341 115 115 117
0.3098252929991281 0.2290641180583340 1.6701365122606713 63 52 46
0.2035325816454672 0.2264597553640364 1.6078409818609474 116 115 110
0.2375672549424668 0.2297514900993297 1.6275607844288404 123 115 112
0.2034098921188158 0.2474068395804820 1.6011944678798693 107 108 100
0.2926561142770945 0.2585027824880262 1.6502568774390400 108 105 100
-0.3920531036228924 0.1727663388069012 1.0478683210186239 159 147 125
0.3273323297175351 0.2854321285233697 1.6682636888844855 105 99 101
0.5610287375171329 0.2873013347846800 1.5643358439275026 123 125 111
0.3273788798906085 0.3070622392791350 1.6629864048394409 97 99 96
0.1447835096913026 0.2817323686158444 1.5115395385527630 116 125 124
-0.2780164486170598 0.2087174841541988 1.1051901044019119 100 81 67
0.5316670666690990 0.3173909259432930 1.5358502418514914 126 128 125
-0.3659482434654965 0.2200839391674764 1.0461655790919744 84 84 92
-0.3315803266501559 0.2387048525238953 1.0658593520634310 144 142 129
-0.3397258510332731 0.2585644387625877 1.0549185605066838 137 131 133
-0.0955586180719765 -0.3149029777889653 1.6812319818393615 149 143 143
0.0660071656370597 -0.2659602977285411 1.7698951950850068 99 102 117
-0.0988291250295509 -0.2146784098323584 1.6619416978954771 141 143 140
-0.2141477098322336 -0.0813526776602924 1.4435762895518334 130 122 120
0.5572942408305045 -0.0792458501350387 1.6474277023692749 125 100 96
0.0295401613901415 -0.0616123015910544 1.5310517042185876 128 125 120
-0.2557587328245404 -0.0409401315922308 1.1700293599299476 91 73 71
0.1205851708336601 -0.0442840820293464 1.5823753645420895 33 51 71
0.5643846793023740 -0.0399181608909131 1.6395506864594753 151 155 141
-0.2678367576663050 -0.0319552679958816 1.1629464769206075 158 158 156
-0.2364618100136500 -0.0341082324538119 1.4170893794636885 66 62 51
-0.2802175810563119 -0.0229408499348913 1.1534675250550606 77 68 69
-0.2554768575874616 -0.0217563204006142 1.1676726261487891 108 89 95
-0.1484600505729984 -0.0229648902983526 1.4662325856160832 124 101 95
-0.2804581982149812 -0.0021532073420188 1.1488370537250086 95 80 83
-0.2546522237942137 0.0004714649052719 1.1627235820945636 95 81 72
-0.0750576416827418 0.0179682911593148 1.4971683670470424 129 123 111
0.4944102615185696 0.0313977999090546 1.5978587681351391 255 255 255
-0.1626371743725545 0.0286318614260113 1.4427377655145761 137 134 127
0.5624353749893849 0.0448371077360906 1.6145106413597461 146 139 123
0.0660597880228837 0.0366858362557837 1.5301095115474608 63 78 109
-0.0749162134576355 0.0401622409505018 1.4932596309138082 128 117 111
-0.1625773641885572 0.0501024018789752 1.4372204162870963 146 137 128
0.2206305641432804 0.0623015363944521 1.6556783065410847 97 77 66
0.3282718201618386 0.0680491858502921 1.7133775835285152 127 118 109
-0.1621934790648319 0.0730260900229258 1.4314643431031722 137 138 132
-0.0747017810695000 0.0840959762068963 1.4817089518627196 123 118 112
-0.2220529214316726 0.0870599014351839 1.3991329686848215 128 125 116
0.4128943519036753 0.1150638924820358 1.7229959514154465 122 127 131
-0.1323956691486843 0.1007907682780479 1.4469846140481859 131 124 114
0.3785092662475317 0.1376216589118398 1.7310935585756435 124 122 125
-0.0010561211692942 0.1219490109554631 1.4481116841080981 94 90 81
-0.3314675654249155 0.0934289285062882 1.1003597360556276 153 140 121
0.2333172122770000 0.1478772958043012 1.6451337981904914 123 119 107
0.4452831802685792 0.1549295510889264 1.6602028452829092 119 125 125
-0.1472877557178174 0.1288372761638580 1.4323301074400192 81 70 64
0.5356594046373787 0.1594202419396580 1.5786621323834047 109 91 77
-0.3733506593607956 0.1087216504602702 1.0720728194006492 150 148 136
-0.3733692356907857 0.1085856146752076 1.0721471239516596 150 148 136
0.2203413122781003 0.1706556353044802 1.6316083016382217 83 76 60
0.3107429597914605 0.1810484174960255 1.6808058778863086 57 49 30
0.3972571603710117 0.1860808794752550 1.7201610669197989 58 51 45
-0.2672447947227359 0.1210069494903794 1.1291533500642377 158 149 134
-0.2800583501405240 0.1298506577461900 1.1202882009230943 69 63 51
-0.2553334593183675 0.1321931017231359 1.1336227682100168 78 67 61
0.0363686041162806 0.1733658814384503 1.4720701096192155 124 120 108
0.0817485727651017 0.1790244573934453 1.4974905333505284 141 137 128
-0.3718181088918660 0.1346270083607614 1.0663684878010371 131 110 83
0.2421599572842899 0.2084553217911475 1.6311968217021431 126 123 116
0.2206578983530423 0.2167027008207736 1.6217890697108008 88 77 75
-0.2657254691095989 0.1469990964938865 1.1213787268969921 132 112 88
-0.2548679042545988 0.1555475839652488 1.1284938995742828 99 79 72
0.2205985507404820 0.2403125835183318 1.6164279633286065 64 57 51
0.6136432477721970 0.2490516727189381 1.6040757194181741 135 129 103
-0.2673357442773765 0.1663475028647844 1.1188439825992462 148 138 113
-0.2798257449405817 0.1733114325961969 1.1108008139755663 75 56 49
0.2205137701758663 0.2613699172288070 1.6118455288347138 81 67 66
0.6133306162479674 0.2716179847830007 1.6000121645356369 117 116 95
0.2919924941999181 0.2848937605862764 1.6475118244401963 106 95 91
0.2207646277938480 0.2830111569188361 1.6076328901502008 73 69 60
0.6136372219381261 0.2947369285035925 1.5948319885731723 131 124 116
-0.0285542552476519 0.2619542903002000 1.4170869992573301 111 119 121
0.5482065737616145 0.3201105952994386 1.5507934324784018 125 122 117
0.0649071666014456 -0.2989345286954974 1.7778842915052984 46 52 64
-0.1276900517291012 0.0113598488928022 1.4646140030802695 136 131 125
-0.0274106766008744 0.0146260288738804 1.4788208581036284 152 148 139
0.0607619848453314 0.0155060948980095 1.5231461067721359 154 147 131
-0.1470966717830762 0.0195203675921754 1.4555607544444458 95 80 73
-0.3501911526096423 0.0223705231530533 1.1031476975944678 140 143 126
0.5352364903478775 0.0417794471742790 1.6056623425486682 119 102 92
-0.2777903933510838 0.0250376247789476 1.1459863672767376 70 67 62
-0.2577448700342582 0.0272174427718227 1.1523539106712894 115 109 113
-0.1295004865364697 0.0330250002390917 1.4611310392001038 142 138 126
-0.2918865379871973 0.0278367666691329 1.1350278298584628 155 150 146
-0.1470499508734259 0.0403844203122891 1.4511418801280453 130 124 124
-0.2666791931158422 0.0449106715954714 1.1479688735380202 143 150 158
-0.1467588388705916 0.0631483155457695 1.4460719101273904 78 70 68
-0.2159764069732883 0.0655748318638119 1.4032497370238932 124 115 106
-0.1467880846483260 0.0877445605092699 1.4401811751001232 76 67 70
-0.3614276216281124 0.1008864943423812 1.0806062441035544 82 74 71
-0.3611656133139527 0.1217003589502865 1.0767941086671289 84 69 62
-0.1295083605532793 0.1678300703085206 1.4323677880353265 118 114 113
0.5348476758624362 0.1949188656915918 1.5691922493506916 95 75 64
-0.3127641155826681 0.1379120660581339 1.1072578199286320 16 26 27
-0.3860267815659901 0.1400419967782105 1.0581019242041234 95 74 69
-0.3121221324920464 0.1579855973994458 1.1019685228058280 12 20 22
-0.3859006540622020 0.1629601616050928 1.0541529584209433 96 72 70
-0.3118029472812633 0.1772534631643234 1.0972568672745437 12 26 27
-0.3352481161800414 0.1978962495634955 1.0832269716377185 13 24 26
0.3231831578992684 0.3387423157552011 1.6548791225619284 104 107 114
-0.0271087404638046 0.2883708865729762 1.4110775674540517 109 117 120
-0.0734963580503801 -0.2428750306081835 1.6676714728931699 57 64 83
0.3501212482783215 -0.0568776065087118 1.7494636171766222 96 98 97
0.4955479698472441 -0.0445702521542492 1.6351003597145719 252 251 249
0.5281613264331096 -0.0469739824983839 1.6321854950434740 45 52 68
-0.2931125647208621 0.0086312975962784 1.1395834457997089 154 152 140
-0.2767667159165419 0.0653184739093308 1.1453952059650516 129 119 118
-0.0234300580233381 0.1411600320653496 1.4494131754192039 132 128 119
0.0586075907882692 0.1426592285306860 1.4910375063124781 141 142 124
-0.3482181751152574 0.1803020869132082 1.0732786812068584 144 125 110
-0.2941981669650855 0.1845844992816817 1.1016236675925934 144 127 117
-0.3138996163111946 0.2000284981296142 1.0943681180835121 16 21 24
0.4898990839148662 0.3552151181337276 1.5447650589988655 98 111 117
-0.0360959228838252 -0.3685054952474182 1.7841859185651818 66 73 101
-0.1894752258997718 0.0918379229271039 1.4106485280690453 92 110 124
0.1757447211224242 0.1322908271505339 1.6053407222818303 65 76 96
-0.0216908728754361 0.1771283728101228 1.4425118914184005 135 134 132
0.0541092976011833 0.1911079210233671 1.4902644923238118 94 101 119
-0.3459299478708414 0.2429527444266573 1.0579909224376729 146 135 129
-0.2957525977831524 0.2525590140579025 1.0862116193501279 127 125 126
-0.3227206284991624 0.1937321373570471 1.0859226352738409 52 54 103
0.5098428351228356 0.2365249993819916 1.5433686256394425 138 138 130
-0.3261308793457277 -0.3518188905059398 1.6196137301511782 58 66 128
-0.0972556920171665 -0.2925919577580395 1.6773796220582282 56 52 66
-0.0975049070463955 -0.2926125144643584 1.6779889589229950 56 52 66
-0.0972013935115266 -0.2740705741048745 1.6735395086984348 52 55 64
-0.0211821943635015 -0.2701552006785303 1.7182030182956713 159 156 177
-0.0106014067650734 -0.2652192151948404 1.7226367430727987 69 74 77
0.3626532964530437 -0.2452910771216314 1.9251300805777387 45 67 65
0.5479542249274484 -0.2180244848886274 1.7811461857859474 51 78 73
0.5487631146892221 -0.2140745023446605 1.7815015818519195 221 255 255
0.5363142912997084 -0.2122866714236137 1.7696546452281077 59 44 125
0.4536862644452547 -0.2363697812430020 1.9905002870778403 55 74 80
0.5659270755691487 -0.1768371462996315 1.7604599358422202 126 144 146
0.5308562870509390 -0.1643952536858626 1.7282476191050402 132 140 176
0.4511667040605996 -0.1850657552653582 1.9189038755995536 39 51 77
-0.0403865711594335 -0.1881619435466817 1.6224124054571165 125 152 182
-0.0436281624381853 -0.1876045594751092 1.6200447856004685 76 95 127
0.5276933794306180 -0.1446018948597156 1.7109870726965577 118 133 162
0.0589839323410292 -0.1534473135675410 1.5583634141393512 162 152 143
0.3592161499518564 -0.1501358350433893 1.9072043142596389 59 54 74
0.3036740435317956 -0.1430091843542946 1.8643572442055956 133 151 173
-0.4146600975319056 -0.1343279214685186 1.0888752417935634 250 255 251
0.5166750510660453 -0.1055620720893430 1.6718118074059825 88 73 140
-0.0811014835647038 -0.1287428879669746 1.5918187996767168 90 100 127
0.0533705565229364 -0.1091880427272660 1.5474931326234493 160 154 140
0.0614670391057087 -0.1076153431926392 1.5519061458292618 147 143 134
0.1171414608174549 -0.1091601437904320 1.7044411162839954 134 143 174
-0.3201011100567749 -0.1104066896821974 1.1387190361581225 171 159 137
0.1855503502275460 -0.1028147204679166 1.7435354882096779 42 60 74
0.0383535310124765 -0.0962115792913882 1.5392266229188232 140 140 132
-0.1168694465699717 -0.0979502632745356 1.5059093368496839 91 86 66
0.6482021652594977 -0.0441986871809971 1.7061515361731932 112 133 128
0.4949303752415359 -0.0257943932853910 1.5821398537648517 255 250 255
0.5771155947057820 -0.0194723411464463 1.6541430373401662 128 149 170
-0.0777930125840731 -0.0515046755133190 1.5094347513464548 12 47 67
-0.0785400400185934 -0.0515533276603781 1.5116989901631481 12 47 67
0.0770456957413228 -0.0407327056932399 1.5472738856896775 72 78 94
0.0386842895453332 -0.0404045378176652 1.5100496112003940 60 82 93
-0.1778031078988389 -0.0449836158786917 1.4411576681688247 74 64 52
0.1973473074957550 -0.0230151368028643 1.6634452045575001 161 161 161
0.2354580372073731 -0.0107363580247671 1.6812285093495984 114 132 146
0.1556690531700758 -0.0141235077927002 1.5755159854041139 145 129 114
0.4866737144353398 0.0161755586300734 1.6148927422597887 200 166 139
0.6281758183478049 0.0272028680396815 1.6603682657692844 84 75 66
0.2906582310037653 0.0118274864317924 1.6945805733232433 131 116 97
-0.0675130776838978 -0.0062688996569643 1.5092487856729457 55 50 44
0.0611680953310445 0.0034446880927536 1.5245788391141601 151 142 127
0.2160114843812637 0.0273157314737633 1.6607105236356754 90 75 78
0.2248490664641021 0.0284542847926764 1.6657593323915107 91 80 76
0.5712059341442833 0.0499436362269659 1.6203582590714862 107 90 74
-0.2890893646925375 0.0021277900073210 1.1413301292538869 118 109 94
0.3892613692274474 0.0611392101256804 1.7519937035001449 56 53 48
0.7649494048303275 0.0831011315305999 1.6765356605550321 209 234 255
0.6231988458751643 0.0884363696204487 1.6432704186228588 92 71 80
0.3196037713113011 0.0788211521079964 1.7087635908458350 77 68 53
0.6349920412515699 0.0943895739593737 1.6484729157101938 162 146 130
0.5202404169818822 0.1221307253518061 1.5753787672913555 158 147 141
-0.2273941419170212 0.0794108020314813 1.3983575610216752 60 59 55
0.6278260620834067 0.1379622425033769 1.6351362756692742 94 77 83
0.2102681256928225 0.1315600212848060 1.6340019057718227 85 72 66
-0.4104835858121147 0.0578009522216867 1.0620377459489396 252 255 244
0.5539482568539005 0.1485328272421629 1.5831161355051713 135 133 120
0.3007144584285815 0.1512896066469513 1.6809341100093418 143 134 125
-0.1377203558583434 0.1329611825728758 1.4361764043751211 55 51 48
0.0264448063871780 0.1542528002474682 1.4602076218826656 105 87 73
0.3195726707444709 0.1935792532383512 1.6830104329478208 72 63 54
0.2953338419163850 0.1959706845516038 1.6626069782890345 132 130 115
-0.1618057084967546 0.1499958464180779 1.4112974825932383 145 146 141
0.2107365628015606 0.1982067554877465 1.6200811804125022 81 77 76
-0.3666295048803326 0.1253151596260128 1.0736111694169401 49 52 35
0.5523686072762410 0.2272781517621069 1.5729923041708598 104 84 77
-0.2708747476260867 -0.1153842299208736 1.4181493085804118 69 78 85
-0.0406671396687768 -0.4108041731644763 1.7960667492575582 81 77 114
-0.3165451048649929 -0.1098256226073941 1.1410069486996177 157 150 140
-0.0369386507208623 -0.3593936998949527 1.7647230946145540 75 85 110
-0.3972792278854679 -0.1188564193149720 1.0994436477825429 169 161 174
-0.0393866159004171 -0.3142948927679207 1.7488326148115905 232 234 231
-0.4099243954819153 -0.0916031489242826 1.0947157363262532 165 187 184
-0.2111576100490382 -0.2747716354703904 1.6582355439053067 59 66 94
0.5875178957489926 0.0601884570012045 1.6408155743378257 58 79 122
-0.0971307649379102 -0.2740077307569305 1.6732823057025425 52 55 64
0.6583999196633299 0.0859456010209143 1.6639402753904926 125 107 103
-0.0974214584522506 -0.2684070673740759 1.6726732146609247 43 50 60
0.6626357060700854 0.0904727483539912 1.6641642308921061 164 172 159
-0.1680249595166231 -0.2700422519153040 1.6827033267375830 85 88 105
-0.3016386987807632 0.0716457593214559 1.3565418798231099 62 72 99
-0.1619513981241396 -0.2687795308117995 1.6840994251242005 88 87 103
-0.2311025728914804 0.0878315373596084 1.1580190617830113 135 125 123
-0.1783965175528179 -0.2629322228242423 1.6676707549810952 110 129 159
0.4984960714236105 0.1749822250867610 1.5536840519436537 78 79 84
-0.1591770312189097 -0.2647977300961957 1.6810717016942696 183 177 189
0.2060945346766543 0.1942146523997253 1.6187953528649888 143 153 155
0.2463062828998571 -0.2771895279187964 1.9265106042635809 248 255 255
0.6363003965415899 0.2426748030807659 1.6160039592881001 153 158 138
0.0683534405289013 -0.2130700976115401 1.7534692490048454 85 83 86
-0.2615480787581335 0.1457339612264451 1.1262598672353537 172 169 154
0.2585986569467593 -0.2251168942003347 1.9141099405572286 27 45 69
-0.3133427902497665 0.1768935246975193 1.3265414075480353 121 128 144
0.1988804821492163 -0.2174407477989565 1.8721168511240556 113 122 153
0.2301855956023810 0.2541520537308732 1.6179525171453553 136 145 140
0.4471521148279561 -0.2264446590054801 1.9736929535946202 143 133 134
0.6242163674862574 0.2644833877771604 1.6049251863980036 88 75 82
0.4346205871849320 -0.2083128763847541 1.9637944036866557 73 64 83
-0.2513419745293691 0.1920250892195033 1.1226079419565380 147 146 152
-0.1775435430862590 -0.1604103852968002 1.5493835236576836 17 40 48
-0.1264957263675940 0.2829297261081494 1.3316290062782494 54 67 86
0.0604162840899551 -0.1372971832102893 1.5587446339505193 158 145 126
-0.5757863244068940 0.2517619578864425 1.0887810967972118 249 244 241
0.4229722480370862 -0.1670413553493072 1.9473666512660566 109 115 129
0.5760603595419229 0.3763438031091989 1.5500458239439563 64 74 86
0.0610378281256374 -0.1334233921888101 1.5549911691306584 98 96 97
0.5394767336719213 -0.2446855139199040 1.7883975603749420 95 102 156
0.5298564082083671 -0.1410977197475093 1.7095626900929217 53 57 120
-0.4488177118426128 -0.3168549430654484 1.4552398468582266 204 209 215
0.3594823779062523 -0.1558371882490944 1.9080100555614674 67 65 76
0.2495808395507882 -0.2338383500536127 1.9163245495077084 109 117 153
-0.1908538938543700 -0.1215328710497290 1.4630990384804958 98 99 103
0.2453079673897017 -0.2244911003074651 1.9063110123961093 79 89 114
0.1805448093157864 -0.1174855448392733 1.7423333750117023 27 47 56
0.5884710355237852 -0.0826617574555266 1.6605250034770647 173 174 168
-0.0330430535457667 -0.1050489607881955 1.5415691413483072 117 132 163
0.1755506396563901 -0.0926733362752708 1.6625474276482275 178 171 152
-0.1662095770344413 -0.1016640418897441 1.4752480565028618 136 135 141
0.5686529025725876 -0.0166350238617938 1.6202185755235248 112 129 155
0.5229313187664644 -0.1037577102013918 1.6737810631772410 36 42 90
-0.1639893679942315 -0.0640594027172964 1.4697638383773362 125 136 154
0.2824170444609955 -0.1058024671405090 1.7968365352022428 24 49 54
-0.4097042225122269 -0.0772440068819413 1.0906151007929306 255 255 253
0.2891648009355162 -0.1036469063780644 1.8008354138422558 11 33 44
0.3110024918945877 0.3409598455343072 1.6409144097485844 119 137 141
-0.3550993078336950 0.0154088683588121 1.1022539007380923 78 78 104
-0.0152581614695496 -0.0605961483970169 1.5046974944021512 82 105 139
-0.3252667735634472 0.0165693885945597 1.1305008104059870 85 113 150
0.1381006148112084 0.0353593425040096 1.5702992717201636 182 183 177
0.4007587780306483 0.0363409730454549 1.7598282534448995 133 127 113
0.2027298148007417 0.0705216449290072 1.6442925707689817 166 159 149
-0.1935216398799250 0.0256677103973170 1.4410934560022179 51 76 106
0.1500967105804399 0.0664837213113677 1.6131373705855476 162 155 147
-0.1526995233490488 0.0288828823474785 1.4510965938834424 87 80 74
-0.2568552989607491 0.0399583124933577 1.3919468022172994 166 167 159
