ply
format ascii 1.0
element vertex 696
property double x
property double y
property double z
property uchar red
property uchar green
property uchar blue
end_header
-0.0424074162358005 0.2358083134542656 0.9982652939243984 51 60 89
-0.2901472101074914 -0.0893538402238657 1.2298343762502872 113 104 107
0.3179751960819164 0.2150367280610071 1.1481805873261712 117 129 129
-0.4349187324052817 0.2052072963518350 0.9853620938789212 153 142 136
-0.3201818430927413 0.0264859498526756 1.0425184371417862 73 57 68
0.2964047840707496 0.1385445572109529 1.2818537813602664 105 105 107
0.0403662894686770 -0.2313678455656716 1.4281705632406154 81 91 101
-0.4036020300536110 -0.1753356190096782 1.2940188208873655 200 194 196
-0.3099951298964329 0.0028989512549678 1.0771399612527461 172 178 174
-0.2536116814208643 0.0938994457853672 1.1964999860079757 135 132 127
0.0385749132225079 -0.0860847955485147 1.2938572595951763 146 176 202
-0.0105765858311740 0.2074439078019393 0.8229351277435344 255 255 236
-0.4354904916628403 0.1055745546144370 1.0060048167775273 94 80 77
-0.0927236180018333 0.2506249719184446 1.1636717943605708 94 113 145
-0.3005724610564850 -0.0547503578090139 1.0546944529562305 149 144 125
0.1088624385341316 -0.0127927656591552 1.2834013737851702 76 59 41
-0.0024909747343794 0.2293553488441117 1.1528798568368424 111 121 133
-0.3300484731517326 0.2051434254730081 1.1579057058096871 62 59 78
0.1364827898730873 -0.0118083298607571 1.2877058433075617 98 83 64
0.0579312911272862 0.1041526628459992 0.7309080157519899 114 132 146
0.1781817538914839 -0.0108280350389770 1.2959845156904248 88 71 53
0.0055213940936615 -0.2170064050153428 1.4201094255973006 255 255 255
0.0036322667231545 -0.0222526876980567 1.2318786171575824 111 87 75
0.1158900380222002 0.0986364893623001 1.2709117485384815 63 66 73
0.0651543146733933 0.1566031461878456 1.2490336992188871 98 93 100
0.0344673157237080 -0.1070269145400242 1.3124152116386740 150 179 213
0.1198861494925335 -0.1038551438761119 1.3560357612439140 27 47 56
-0.0271262392022716 0.2275315485791581 1.1499499451140107 46 66 101
-0.4108180333816696 0.0179499861439929 1.0276802797173812 94 82 96
-0.3493846580340279 0.1519910271035258 1.0133827817630476 152 143 112
-0.0605242751166925 0.0484420956716053 1.2021063418384199 135 133 136
-0.3262860330276329 0.0718402812171203 1.0336236115203750 137 113 101
0.1338198225318338 0.2408665293231347 1.2082644202804447 27 35 38
0.3412942715787220 -0.1043678085117243 1.2453089060684615 116 109 153
0.2133979577402737 -0.1754019997731389 1.4477587150296782 141 169 180
0.3577343404167484 -0.2144829805284359 1.4666003181889089 82 84 105
0.0121398009359964 -0.0783561308978520 1.2515492591097008 132 125 133
0.0947787100240572 -0.0131862894139668 1.2803468938362628 68 60 41
-0.3223782355117319 -0.0950791596238303 1.1422147869447616 150 151 155
-0.3806748854858089 0.1999363587949228 0.9917448553090839 112 111 107
0.2128867160683711 -0.0901199476318454 1.3720265401323122 56 72 98
0.4736317255087538 -0.0368612695333336 1.1925718367863105 99 102 107
0.0530221275223213 -0.0217673835147642 1.2798773487163606 100 87 68
0.3009240529676437 0.1381909446183680 1.2337428855114294 115 120 126
-0.2474045126897770 0.1792529097690246 0.9847844822720314 167 190 198
0.2679683991863069 0.0336850859088584 1.3114474092107853 86 88 85
-0.1930346877997504 0.0311657640870875 1.2263259838539102 148 150 136
-0.4261542601654255 0.0162121871323199 1.0333965018005475 157 143 140
-0.3509601779253030 0.0094159536425799 1.0404885812409479 82 74 71
-0.3424324869268914 0.0879545618030763 1.0273468580151512 80 59 42
0.0279795046140090 -0.2040374132617123 1.4068805810421694 119 108 124
0.3340820447077256 -0.0385832984377398 1.1693094148744851 161 148 129
-0.4047588794173442 -0.2029528120803789 1.3025728841384745 122 96 167
-0.4137427560605436 0.0031802650996264 1.0293989251874731 113 114 135
0.0219686211797981 0.1458182370982145 1.2078274714667026 101 91 89
0.0065657172427073 0.0540232652968113 1.2240443522492352 161 154 138
0.5204749900287455 0.3020659740274486 1.3320974151645693 71 68 85
0.0215007823311001 0.1787506656277790 1.2003266013488074 90 91 86
0.1253560620725271 -0.1952011449493101 1.4454885244712208 55 68 77
-0.1594133938862303 0.2529525021286749 1.1391733714416064 101 113 135
0.3069054989352602 -0.0792488258046651 1.2576776604489328 161 168 176
0.3813795662557601 0.0082249156839026 1.1760508487069199 107 90 74
0.4576856709370739 0.1157006012156759 1.1725762550450727 95 82 91
0.3384910053929900 0.0222821889681595 1.1650363829477444 145 144 142
-0.2620658562848805 0.0570688658703233 1.2069425190828704 117 112 116
-0.4390690006589312 0.1603098823887786 0.9944193666294856 152 149 114
-0.3052551460532445 0.0167593943663783 1.0334225079114685 150 163 171
-0.3405655109750987 0.0979560824803865 1.0250836305388158 127 99 88
0.3748287326964114 -0.1847467138220380 1.2835727662486629 104 82 164
0.2804742458138690 0.1555717940811955 1.2891165447499422 129 128 136
-0.3182980141366438 -0.0047174942025166 1.1288878047784094 164 169 163
-0.2712224573491305 -0.1172131061384661 1.2876617432303459 89 99 126
0.2810195715088545 -0.1639869198881624 1.4353025401689812 147 137 206
0.3862964956081976 0.2416865717933128 1.1323304792037798 46 46 70
-0.3955110041697853 0.1254759422685513 1.0171040029459257 22 39 57
0.1500956925247456 0.1700217357530128 1.2620062325246106 123 123 111
0.1767608279320034 0.2196197575991735 1.2589019919229298 52 42 51
0.2913478853458477 0.0157025485438238 1.3165439468087852 128 132 117
0.1946645544823998 -0.0271036239949521 1.3093704263962036 157 161 162
-0.3629316988810582 0.0600935744571966 1.0241097777493737 135 131 120
-0.1999309536730114 0.0354480140755157 1.2213686977301266 66 78 100
-0.3504438092009473 0.1378582360477125 1.0164262238383104 88 71 53
0.2107743256414097 -0.1902380931081019 1.4679766782236086 78 84 98
-0.3230146981623995 -0.0950881147210431 1.0808745624179024 116 138 175
0.3370517662729077 0.1120800362808254 1.1493964701206525 58 52 52
0.0389811579352202 -0.2145348000308214 1.3987135549794760 160 158 163
-0.3580490546308313 -0.0684647248606434 1.0389935791739753 117 139 150
0.3775622378348874 -0.0329905507197334 1.1786719193000865 114 90 66
0.4545309264381445 0.1060655583424825 1.1741099512090027 54 59 52
0.3201119411057786 0.1084020219759575 1.1465692679433990 81 77 74
0.3376855274463235 -0.1433634467375746 1.4396192732176694 42 60 96
-0.3348791957561863 0.1729013609733685 1.0124469701324950 86 75 79
0.2923816450459539 0.2383864492328162 1.2736182689629474 108 117 122
-0.4396844159324279 0.1500422824468014 0.9970573066990397 154 156 135
-0.5549706460343000 0.2334903204799106 1.0647272485574368 153 54 121
-0.2308132517535269 -0.0277633014097581 1.2199929141197039 150 137 129
0.2830986033689273 0.1426348999335168 1.2916954899750137 55 57 69
0.3673797633140074 0.1223590171547170 1.1532320364853790 144 133 111
-0.1081108887433475 -0.1729452882946211 1.3641887813586366 145 152 160
0.0095492946610446 -0.1658131048854403 1.3593715762972010 139 163 199
0.4578347983511712 0.1701524707202210 1.1615459830169788 63 58 39
-0.0464973107282009 -0.0809244874487748 1.2711301696172908 32 48 71
0.3189746051315340 -0.0534013240168139 1.2286027539279580 96 96 124
0.1221603705842556 0.1772727428155077 1.2579415350745915 106 110 113
-0.0283042509615487 -0.0234116140410444 1.2251265061940513 116 109 99
0.3647224496451439 0.1099734273159965 1.1511230137266264 113 88 68
-0.4455951383600726 -0.0958823324067260 1.0538100384520295 116 136 147
-0.3072075850039204 0.1790785590489718 1.0329252807316291 99 79 88
-0.0126255145011654 0.2382335147505833 1.0933713093789994 29 48 63
-0.3483570749235713 0.0781784626438564 1.0284003951799912 102 86 86
-0.4437950629179626 0.1380935739473863 0.9979360567491152 149 143 129
0.0704696956489366 0.2712609141884088 1.1627691639789564 52 72 79
0.3066653647761482 0.1912480000465574 1.2138720040693847 70 63 70
-0.3955270831324644 -0.2115423710934456 1.2036986539793093 128 138 174
0.3360130197806362 -0.1487246437094068 1.4470928330729731 140 148 159
0.0360712554795632 -0.2160877932401578 1.3992546737442459 101 98 119
-0.3244288838445320 0.0366007626472181 1.1985309564731379 79 74 78
-0.1474650897612847 -0.1978648447494842 1.3908209660502246 183 177 189
-0.2935344687925575 -0.0454089648407889 1.2290242391030930 140 146 160
0.0020048446861781 0.1652998661216714 0.9537956133472067 106 107 112
-0.1063946545831371 -0.2081671496996411 1.3688044618975985 135 144 161
0.1142253906505520 0.1481104233989323 1.2598981749010520 75 75 85
-0.3189492866640627 0.0710153877333929 1.1176531913257808 128 126 140
-0.1681367965703056 0.0558871131052702 1.2242988354730417 92 80 94
0.4274682824084310 0.1492759851994549 1.1602704691630283 94 88 90
-0.1365689048501605 0.0335932336940025 1.2434547389293524 50 71 100
0.3356268962537172 0.0809242591015440 1.1530770647303956 83 85 84
-0.2983990426198934 0.2421229447205385 1.0185205312561769 39 58 73
0.0899873351860367 -0.1819948353259385 1.4274921941839367 39 58 91
0.2110317004922009 -0.1942042332761715 1.4603106387321270 27 45 69
0.2547603054006440 -0.0764997468612701 1.3319826456123887 133 131 116
0.1637763079693498 -0.0106672567787540 1.2925996849589216 76 71 49
-0.1615279496425496 -0.0490703340451028 1.2545104107656422 76 87 107
0.3096135819808346 0.2446178167247112 1.1740939650020146 99 106 125
-0.2421159504670099 0.0058003434489652 1.2226496545253891 132 129 112
0.1285278522256987 0.1145016168812356 1.2689772136007307 126 120 106
-0.3260662707188995 0.0426816350686497 1.1962194261482597 111 100 94
-0.2447122842263350 0.0745712322008595 1.2055733000962074 60 59 55
0.2353743019324792 -0.0310560874440745 1.3197020885014312 149 147 148
0.0315314503736088 -0.2205019643709323 1.4782993516834750 161 166 159
0.4438233942237853 0.1211548088494315 1.1671253399177226 58 54 55
0.0364148065166343 -0.1713474565966135 1.3894462617945895 85 83 86
0.1535089881975190 0.1291725040423290 1.2671491671420680 151 151 153
-0.3663530752832827 0.2159712328249496 0.9952638088801863 80 61 89
0.1294338240176691 0.1483372547582874 1.2614352891857079 91 78 87
0.2057361806563532 -0.0903260565395729 1.3695297682026917 38 54 69
0.4320034349916533 -0.1057628826373545 1.2408373943647859 140 171 163
0.2228229961898985 0.2116146363833657 1.2677268615967574 115 114 109
0.3214132951355061 -0.0568617003734929 1.2232333158351354 249 252 233
0.0403213165919171 -0.0802167922281974 1.2903107210200053 141 172 200
-0.2609425810142169 0.0649038788314514 1.2049629687008137 141 135 119
0.1381827388042683 0.0672961377559536 1.2795313947933438 98 82 83
0.4535697533790300 0.1034561341542762 1.1747758399497994 99 81 71
0.3069439185380657 0.0726580598855554 1.2390164593637019 85 74 78
0.0337601449144226 -0.2199187910508422 1.4554118647597134 185 184 180
0.2023074203978509 -0.2334961123922770 1.4715932951762212 248 255 255
0.2236034351958450 0.0785712531452605 1.2937689135511332 156 158 157
-0.2452259858063185 0.1788373780734174 1.1861106609844867 145 149 150
0.2930594005296898 0.0129543288866797 1.2964583678386210 129 126 133
0.3191001351962207 -0.0046241801197922 1.1892825137113914 255 253 203
0.1931637800821238 -0.0029448693338853 1.2002662994055362 100 85 78
0.1949229111001378 -0.0095308808073716 1.2970251568001387 131 116 97
-0.0681924292705321 -0.0557948362738833 1.2495647135936612 55 66 96
-0.4104257946524040 0.1358485488899415 1.0050637899535220 117 89 86
-0.1684308780835882 0.0216918387055319 1.2307612588778063 129 119 128
-0.0045757661414974 0.0246650807508866 1.2318929218079595 63 78 109
-0.4138044366344716 0.1486881848073536 1.0016648508183523 122 100 113
0.3872206890211933 0.1869024502840439 1.1504161919926499 58 59 63
-0.0541500393174846 -0.2865497952233791 1.4279903561131182 71 72 136
0.0238568035797105 -0.2334972510007592 1.4188586280898043 255 253 246
0.1143463663760854 0.0978945340787117 1.2677074323920483 58 63 82
-0.4105820832362334 0.1254977768248849 1.0073325983187611 79 63 76
0.0459113361548720 0.0915497144096697 0.7293093330835502 160 158 146
0.3034765131284047 0.0287412900917672 1.2554184878337584 101 105 91
-0.2532286313259624 0.2091642060979721 1.1790432137077795 65 66 71
0.3046824860098151 0.2705174869209188 1.2157583096128473 95 103 124
-0.1626805321793993 0.0941366403085774 1.2148242574286801 58 67 76
0.1068735569590524 -0.0569197916054465 1.3067133155053754 67 84 102
0.1153027801150829 -0.1010880442110705 1.3595735294058011 18 47 65
-0.1846665176016427 0.0212522093107457 1.2282742916611322 87 80 70
0.3628570794352071 0.0529260944831196 1.1665456660552675 74 70 67
0.3472451114226863 -0.0156731068254190 1.1763117298034969 84 67 59
-0.3060754435071646 0.1455436881750732 1.0389388067130418 110 90 91
0.4350911959168589 0.0567592785668671 1.1788371330437777 62 61 57
0.1596540146525434 -0.0103595542663912 1.2908293389037808 154 137 117
0.3046467263666633 0.0692755243562621 1.2490533431608044 127 128 122
-0.3361333142901144 0.1330728933131203 1.0108528011213089 146 126 99
-0.2817928850758081 -0.0467431834746119 1.2269111996150939 67 88 119
0.0541474796323533 0.0723379113728096 1.0957460385558269 125 161 193
0.1756259040697274 -0.0491320775774271 1.3084877829699408 92 119 164
0.2224826332637056 0.0808594026621160 1.2930383121369982 155 164 147
0.4572031888307810 0.0288903554377922 1.1883532661682203 104 94 93
-0.3263552696980341 0.0311980538329674 1.0402804639407697 115 104 118
-0.3263517468187622 0.0718322607315763 1.0334171124082068 137 113 101
0.4351809169686801 0.0315744436344654 1.1834153199227748 68 64 63
0.1516354088019985 -0.0311031883801632 1.3021902927192730 191 190 188
0.3095521761231592 -0.0218675781350987 1.2211971624169637 114 92 81
0.4208399927865094 0.0105156295520227 1.1838493697041557 100 90 89
0.4362880673684271 0.1719482863854578 1.1567389288542091 64 61 54
0.1826074591658972 -0.0705126098005740 1.3158422921265134 165 164 160
-0.0711043255964756 0.2484424688079502 1.0913262022202748 29 50 67
-0.1960561661776559 0.0282693370511031 1.2230466611617525 147 136 132
-0.3530104501816531 -0.0403395623135876 1.0480306834170403 144 147 126
0.0040450941621124 -0.0458695263564547 1.2439810961521793 116 110 114
-0.3345421846043223 0.1005598200846868 1.0250863634498100 93 74 70
0.3472404678311225 0.1293964037665681 1.1484458707506682 140 122 108
-0.2416838758167951 0.0067948471973140 1.2189887256411591 138 138 136
0.3045572043040627 0.0377042399723963 1.2481265618431838 134 130 119
-0.3362426338403026 0.0151755044098397 1.0328030145927898 194 185 186
-0.1402575664193578 0.0037802851508525 1.2377227756063103 101 85 70
-0.0038337393409178 0.2296440356136021 1.1421895889982507 42 50 69
-0.3055806793471635 0.1891707782886354 1.0308632987557795 82 66 77
0.2353153418830874 -0.0122259548157318 1.3048223793754352 139 124 105
0.0310491871678165 -0.2191656309930000 1.4656207883300816 159 154 160
0.4316568423835033 0.1194986704141059 1.1668152920716182 56 54 57
0.0852698319754898 -0.1918195915275036 1.4350049195804082 107 124 154
-0.3158617946026352 -0.0808840535314372 1.0736475983683469 97 122 163
-0.3518799557984378 -0.1458231953230546 1.1066572329908149 124 139 172
0.0104114919954314 0.2417732371654281 1.1098390023374267 23 40 50
-0.4025869850277513 -0.1699508332670402 1.2849741321808188 107 118 148
0.2238464016988354 0.1969220019438907 1.2709271407823932 107 109 108
0.1862469509489079 0.2261450106830216 1.2702065544137344 70 60 48
0.1244439495299486 -0.2001091967418634 1.4454717739793350 232 255 255
-0.3532130226760279 -0.0088125590815216 1.0430542947568966 156 152 125
0.4564569960559969 0.1278421564510525 1.1682990058085121 130 120 93
0.3048595952129712 0.1286269030319265 1.2341397346229970 111 104 98
0.2582230600175713 0.1356596258289153 1.2867516602711664 75 73 76
0.1332198114553169 -0.1820027375996053 1.4352371547646947 57 69 95
-0.1769465982649017 0.2344055226569766 1.1391563712357202 84 82 96
-0.0304952089118651 0.0892920060587288 1.2160743088129402 52 67 90
0.1474039610942771 0.0261017327183945 1.2887745318526047 142 138 127
-0.0450649138846941 -0.0023110498323906 1.2219567245275749 109 105 104
0.0210719810424132 0.1609020847500906 1.2042997579864096 84 85 80
0.1304297558427671 0.2079833779056336 1.2522230972588089 104 100 114
-0.4341674883999226 0.1834798477241182 0.9918576616982899 58 46 32
0.1673717143753076 -0.0533056910398719 1.3130314181693685 79 102 143
0.3355331622102921 -0.1269490446253733 1.3977376817009093 100 108 144
0.4712853177934084 0.2639925768163504 1.1402190095306619 56 61 65
0.3517710175703475 0.0679831654597674 1.1598009053367266 83 75 73
-0.1637354189201523 0.0502625519711379 1.2284353979758482 176 175 173
-0.1877030269309502 0.0547554010545753 1.2202066004184990 143 139 130
0.3175709730658125 0.1410919394929800 1.1702978000862032 128 130 125
0.0338044528650283 -0.2359974360536988 1.4011497784399893 46 47 65
-0.1863189347330688 0.0958123559817837 1.2064851432232997 139 150 156
0.3871220443651248 0.1355422013343519 1.1584867566175796 52 69 85
-0.4349047664867003 0.1216410175869236 1.0025075063488222 105 106 111
-0.3462076472849775 0.1855039277171357 1.0070744520287593 72 72 74
0.4166407635292275 -0.0910847716129667 1.1999635473720107 157 158 142
0.3666713149074691 0.0489111177559207 1.1682405300023868 98 86 86
0.2962008437021698 0.2391139030167074 1.2660277761073557 55 58 75
0.2057969646712081 0.1088012260548421 1.2796698167660161 139 134 130
-0.0098471932258417 0.2058170259566364 1.2005933201940566 69 62 44
0.1904579799441700 0.2641365337652684 1.2544662235950577 11 34 42
-0.3111545549266104 0.0297159410882043 1.2016774575924616 165 162 157
-0.3418030070151219 0.1416001814787206 1.0169999381092838 85 70 73
-0.0139779506419541 0.1929154998923549 1.2008835745475681 90 112 135
0.3372452947788328 0.0449028741491644 1.1615023667106814 99 82 90
0.3047421788779982 0.0526896658835258 1.2522531526821299 137 134 127
0.2740587687130360 0.0320288121639894 1.3092480912848525 131 120 124
0.3203528227817843 0.1082075895889576 1.1467953035660945 91 80 84
-0.0397990228455919 -0.2854610355539753 1.4350973796907553 74 73 105
0.2822709151468141 -0.2008619076191343 1.4427588846201629 120 140 164
0.0227437933854946 0.2460386863269544 1.0611819981163597 38 58 67
-0.2549095482445663 0.0789484830677230 1.2050131109547129 90 84 88
0.4518279699987321 0.1765367814196034 1.1596032570178116 93 74 70
-0.3503213205584496 0.1439482681134372 1.0148830218884017 78 71 63
0.0051523629274852 -0.0694502627457401 1.2592293115058706 130 134 137
-0.2608474465837252 0.1928458789536029 1.1798336619836507 43 50 43
0.3678958023630078 0.1953095587107181 1.1395270959984289 55 56 51
0.3137558192742449 0.1293833819406865 1.1853592390240864 125 134 131
0.0993686301066375 0.0464108572275689 1.2809984508551073 117 134 160
-0.4221430423751712 0.1486463474692876 1.0026955863219964 158 147 125
-0.0085835776415246 0.1409415862016513 1.2135923373579356 58 74 73
-0.0295778490664659 -0.0750703947935164 1.2435488711472582 140 140 132
0.4619456984466772 0.1169712447087576 1.1687461160042600 145 140 120
-0.1669925031749938 0.2005393456123784 1.1954066510450172 112 111 116
-0.3116592831682608 0.0630813760348506 1.0569379122507276 65 74 89
0.2413659947404222 -0.0542517706658928 1.3261335629409399 80 80 82
-0.3862977132325028 -0.1202450256986124 1.0745243076797293 130 139 154
-0.3219430413211101 0.0179044315027962 1.0434766579062682 157 147 146
0.3235027345903945 0.0610253977010423 1.1567815612936487 179 176 169
-0.3211374940776856 0.0433071728136025 1.1973771313329529 125 126 128
0.2528371841585526 -0.0765781964019167 1.3267708742035369 153 151 136
0.2051823313625558 0.0282580888890466 1.3001988287780848 152 151 133
-0.4297007475778902 -0.1717254963480481 1.3814933601747292 182 192 201
0.3004318127131236 -0.0238963547531684 1.2344921846298631 149 150 144
-0.3794312333559364 -0.1991331421135692 1.1500047993464733 106 136 172
-0.3257117184850440 0.1992204104023212 1.0019995898268665 59 67 80
0.3045596158393295 0.0774113851737901 1.2487313375476246 126 120 120
-0.4123899765537219 -0.1829611804939649 1.3209959870487007 76 82 104
0.0427269899377245 0.0580502430253229 1.2306665037852960 122 114 101
0.3211499504889100 0.0710658654032712 1.1696248546917003 148 147 152
-0.4390485218551550 0.1047289238578919 1.0058098922543925 88 74 73
-0.0300542026680019 -0.2453738950946845 1.4176640264873817 254 254 254
0.3176635031006008 0.1961320404942115 1.1450394956582486 88 79 80
0.3589461924599459 0.0512548062277985 1.1655502393328920 101 89 103
-0.1166205368793016 -0.1860890309239320 1.3701364059825318 81 98 128
-0.4110995118722648 0.1055113474862240 1.0119334929229431 83 74 93
-0.1673115129419564 0.0656154918398757 1.2211041595736127 149 151 137
0.3983141178478863 0.2368829474167172 1.1362626097127435 131 141 143
-0.3965505511627347 0.1537548453514772 1.0097796969505610 109 127 131
-0.3301540616043446 0.1180716519614115 1.1698223839861150 128 134 130
-0.0638710244045150 -0.0070584628948878 1.2221345290984977 167 155 139
-0.3978556644618294 -0.1977791632103094 1.1309858980539866 39 62 96
0.3660937173121087 0.0139742456009789 1.1746464566736634 104 86 74
-0.3111498535691182 0.0527302176368524 1.0343813246299363 104 101 128
-0.2078320597104361 0.0445378641695071 1.2279018100954404 107 125 149
0.3873682870508162 0.0275785378660333 1.1785869271948475 96 108 122
-0.0320922720817466 -0.0768816218767040 1.2436238061030167 120 110 98
0.3372493643708055 0.1662715368299086 1.1388722549321673 69 58 66
0.3197788313162291 -0.0342510825836977 1.1664086581230899 169 154 125
0.0261363614780797 -0.0039784040824282 1.2407702989307818 156 148 135
-0.1470669192389327 -0.0246080519472639 1.2350748857761700 146 141 122
-0.3790684041610174 -0.0026138657177146 1.0456208225333938 64 94 132
-0.1445654034748360 0.0153681238909360 1.2377553336584430 159 153 139
0.0576506825541069 0.1134131922152209 1.2186074960162643 161 166 159
0.3550502460942080 -0.1778199506409857 1.4102913506778396 255 255 248
0.0630113213839657 -0.0033496564286681 1.2514105475904318 167 158 143
0.1855748656613368 -0.0103761313805459 1.2960715274924350 73 69 57
-0.0559673673703655 -0.0444846034178491 1.2350951105555283 124 121 128
0.2845460645651884 -0.1957187919005004 1.4413590140783696 114 117 132
-0.3197720452514233 -0.0321675494116987 1.1395570189638675 111 105 107
0.3369625789121767 -0.1605012188741822 1.4683191600218719 48 50 98
0.3459290237733801 0.0655545343667019 1.1580075838301913 96 74 61
-0.0923056852392935 0.2280446594600380 1.1696483444203307 104 121 151
-0.4245018845425372 -0.2250126152803012 1.2943662170051304 139 136 155
-0.2618293192947922 0.0031525796355896 1.2166150963459159 94 80 69
0.1851576609175569 -0.0541904223418256 1.3247187614319291 23 40 47
-0.0647926323821877 0.0965999800576862 1.1948891137598261 73 72 54
-0.1831798997904332 -0.0265085158280732 1.2278145782901662 147 135 119
-0.1188502293013539 0.2239114599032571 1.1994977371773285 102 110 113
0.3660788698645749 0.0140200765368682 1.1740698448796165 127 114 108
0.3887019148129552 -0.1921627591861221 1.2932671841555650 49 77 89
0.3271433204446166 0.0974825173692207 1.1608488134642749 183 174 157
-0.0521803742139899 -0.0387703745391587 1.2322223781271564 63 75 87
0.2921498110181375 0.1995323719463458 1.2808096173890680 131 131 139
-0.0957561216065854 0.2361287875688060 1.1681442341384032 49 47 60
0.2955306781991753 0.2377131198492538 1.2696994385133111 83 93 103
0.4565723775794904 0.2007457350052752 1.1561763675574013 94 82 82
0.4274534940104240 0.0538034576178512 1.1789851489726684 156 153 138
0.3217289869604508 0.1986811906145901 1.1424029705930838 121 129 131
0.0039914380024513 0.2358770706870017 1.1167875020529232 47 60 76
-0.3109209483294116 -0.0448043385371553 1.0560618424994801 199 201 196
0.4648452412983030 0.1128789852806424 1.1707742512497519 111 94 78
-0.0374250823886761 -0.2613098173388133 1.4195598662923217 236 255 255
-0.1856712930482511 0.0483185984377259 1.2218999918740996 144 140 131
0.1154298705711105 0.0282838524030330 1.2817132122782229 101 96 93
0.3213882459657756 0.1735420700891455 1.1497175869677734 127 139 151
0.2234521123065522 0.1798640303531892 1.2730686876467732 122 121 127
-0.0475484083612900 -0.0855038577896533 1.2770570330777202 52 60 81
-0.1684778541129562 0.2148157261390216 1.1932603250427649 113 104 109
-0.1633370898033677 0.2373190415520845 1.1402803137445241 89 92 107
0.4424439683899792 0.0767244065915016 1.1768398171393093 59 67 70
0.2259702966777939 0.2623216651203179 1.2296021852659067 73 87 113
-0.2281359363528171 0.0942369256536747 1.2007874060709460 139 144 147
-0.1038058740874486 -0.2297785061843892 1.4059137747265860 199 199 199
0.2832278088970268 0.1563212231462880 1.2903236243076992 53 54 72
0.1395978916734548 0.2376736759792124 1.1980944008442092 37 43 57
0.1828788428422878 0.1696163474778472 1.2747006764895528 83 98 119
-0.3208137610028280 -0.0989837871236081 1.1587386245790117 163 169 167
0.1335607581427393 0.1064626975174913 1.2683154520960869 130 143 149
-0.2199234453855062 0.0131494944757118 1.2220488908138440 137 134 117
-0.3187506142470024 0.1690192743905922 1.1743625921461189 114 115 110
0.0413801217143012 -0.2271106547759770 1.4123421127353399 173 178 184
-0.2840139632173670 -0.2465652173046208 1.3832735736491850 71 69 142
0.4578348468174068 0.1196419312549310 1.1710890360672392 85 74 72
0.3862614241097233 0.0171167441618458 1.1819930158326395 61 85 119
0.4278546694471756 0.1602297021500173 1.1577934613653378 132 136 109
-0.2766548005541753 -0.0466443019584215 1.2267426519389624 173 176 183
-0.1151362426570451 -0.2231425025018445 1.3826825895873023 255 255 248
-0.0733004421188714 -0.1965619681278502 1.3726295345427990 59 75 108
-0.0027611053006041 0.1448397247761157 1.2134507800348233 12 35 53
-0.1707445607687185 0.1179395432799695 1.2087025816774999 116 121 117
0.2949104123710053 0.0948157617286602 1.2899855792397203 119 127 129
-0.3348676394322254 0.0882017568197810 1.0284720784496961 81 65 52
0.3202332335418963 0.0773497569570586 1.1498184735386427 149 152 157
0.3014139415884067 0.0336682963228547 1.2771609164907562 25 28 35
0.1784999963863911 0.2628534440779968 1.2551964637183877 13 25 39
0.1071750033027021 -0.0632895441928492 1.3009229675654577 151 135 112
-0.2248562379914455 0.0681615483541138 1.2208534751413174 115 132 152
0.2917474625700695 0.0071832453142348 1.3182565607970889 145 134 132
-0.2615458244391869 -0.0063174033352731 1.2190034966193100 52 51 46
0.2182028461097960 0.1354082962739465 1.2814276064809069 70 55 48
-0.0515671662733034 -0.0062933675849025 1.2248212202505484 162 155 139
0.4192313384577242 0.0312461986732530 1.1797132309414078 155 146 137
-0.3589107669538164 -0.0889720121794838 1.0662528783140401 90 110 137
-0.2422088538544095 0.1083274598871939 1.1980291754393630 131 123 121
-0.4104522321576562 0.0914463292720610 1.0136617198363733 60 54 58
-0.0728936383400587 -0.1330054535553479 1.3117423156378540 115 149 197
-0.3274060170302911 0.2484126418828425 1.1528595304143068 116 111 115
0.1821554116226810 -0.0702966618892305 1.3138846745882597 165 164 160
0.2988338989679689 0.0063467463631165 1.2839815224778333 123 128 122
-0.3117387888696140 -0.0403208849112922 1.2147847407076362 20 40 65
0.3125086646836366 -0.0212903412077198 1.2153391261926216 255 253 204
-0.1008563661873668 -0.1883151435167421 1.3674015606897596 138 148 158
0.2546525278268181 0.1913594240067856 1.2837344941618265 0 12 44
0.1455984714107026 0.1746212735056907 1.2606265336612787 109 102 110
-0.4053332141027520 0.1867508327835016 0.9938610538156212 162 155 129
0.1649210081365130 0.2752788671731037 1.2008715927277556 23 33 45
0.1337462005306149 -0.0122762469366681 1.2873486283352522 108 89 85
-0.1769548403895800 -0.0345256270722776 1.2431697368760037 126 128 153
0.1456441732962728 -0.0150225485093819 1.2873979989844566 142 126 103
-0.4226633255893818 0.1258293687354993 1.0031686214971614 75 78 97
-0.4406142145969515 0.0278671886144945 1.0191510930561329 150 160 152
0.3158093210755710 -0.0247943266816002 1.1966642637272533 136 97 82
0.1857204772249602 -0.0219930542153211 1.3049592925033786 132 143 163
-0.1814942968143101 -0.1965536379641661 1.3816784895459220 60 89 121
0.3739401723448325 0.0054518369739331 1.1745321647792810 163 160 153
0.0372505373991183 0.2090726770429203 1.1990537777627437 70 70 68
0.3109445920592021 -0.0353037326075224 1.1773206497850206 255 255 250
0.3062925809614293 -0.0270173302410671 1.2093907577466037 139 96 89
0.4083766684264749 -0.0454454705519470 1.1995694896239550 126 147 174
0.2719610600987067 -0.2071021606687819 1.4615998703525321 200 191 234
0.0439173723686317 -0.0241170017697810 1.2375694584240560 154 154 144
0.0010544447566280 -0.0364436020889197 1.2418487270599254 127 132 128
0.0596661765596566 0.0126527813511923 1.2414058940906216 187 186 181
-0.4053558427442707 0.0453796213734314 1.0218964480292454 155 160 156
-0.2243985474026680 -0.0270081265901739 1.2206736308325068 151 142 127
-1.0263901799797375 0.3267886373407823 2.5407660519255426 36 46 73
0.2686544363800291 0.2410797012941165 1.2678658128180675 56 55 53
-0.3936842421534122 0.1870331547868599 0.9934307154001453 135 136 122
-0.4089823417587404 -0.1868939533066179 1.1262866042559809 136 168 191
-0.2241230918223021 0.0951200352533209 1.2096252024836858 137 138 133
0.0140786189435062 0.1286997942887639 1.2120072382628724 126 113 107
-0.1862229171510047 -0.1006233825477439 1.2981483647496708 99 121 158
0.3481680001201072 -0.0429261937510578 1.1716457548347727 89 96 115
0.3045874708784461 0.1081473662408778 1.2359477944685904 119 114 110
0.2960234490459853 0.1062080337632996 1.2782142581325109 111 114 123
-0.2164149863755049 0.0733937045339724 1.2192790215297455 81 107 140
0.1987156070798828 -0.0432484482054389 1.3172560496905530 61 66 96
-0.1316668797286537 -0.0184341612269927 1.2480888617704924 112 95 69
-0.3499436666853548 0.0283282940747119 1.0366371709467554 183 191 178
-0.3075678061064864 0.0825693781539189 1.0574220606780833 154 159 162
0.3972533061008489 0.0947477230537493 1.1620820831402632 151 144 125
0.3180236489548687 0.0901859753598150 1.1683649521373962 97 86 82
-0.4389802373020259 -0.0027596376895549 1.0255293550875983 146 162 159
0.3584458797724837 0.0709262954818933 1.1623426141435558 64 60 61
0.3382915044142716 0.0058142658434628 1.1691438218289882 158 146 134
0.4083637097083235 0.0312420812662492 1.1888373143235678 0 30 45
-0.3858368058813065 0.0974508346790629 1.0143094788602145 161 155 131
0.2831020115402359 0.2282459268785776 1.2762021752487804 40 60 71
0.4132015799053785 0.1288406954761048 1.1622016773776234 91 88 79
-0.0481876455842963 -0.0444447327577682 1.2344697228565769 107 104 99
0.1376545974221912 0.0510054147771849 1.2829230240148433 104 90 90
-0.0446873787217103 -0.2838105624578623 1.4230237736347324 48 65 85
0.0168708799354483 0.2393218731638038 1.0122169218873436 60 69 86
-0.3243988683972062 0.0529373861146755 1.1950538804311661 112 105 112
0.0982515162771618 0.0817037754490930 1.2767404645720029 99 125 152
0.0137736107056178 -0.0213071969545646 1.2318345867548508 155 144 122
0.4432522425622323 -0.0311984595996808 1.1891466465290090 103 84 67
-0.0316690148731276 -0.0229537481801279 1.2237002086714093 172 162 137
0.3050859412887938 0.0613400531436227 1.2532235141133672 120 119 114
-0.0152710130131366 0.0359597611349599 1.2310911670408689 105 120 141
0.3919771459952649 -0.0415407238332424 1.1801616718004657 120 135 164
-0.0196908847900579 -0.2250927764414848 1.4276742591100124 158 190 215
-0.0539866416811615 -0.0235651544289393 1.2199071789291798 158 146 132
0.4096349561612716 0.1321089302408118 1.1666172818030562 21 41 30
-0.0657933291767740 0.2227275659542111 1.1449472432494237 125 148 154
0.3674053555158080 0.1837681649736327 1.1417245106296923 96 96 88
-0.4094329815283106 0.0679796516085693 1.0176121771107689 135 128 110
0.3046764186750409 0.0402388519386952 1.2862882388956201 23 27 36
0.1739402246458162 -0.0470623975584043 1.3167688718224997 111 130 160
0.2230117118450035 0.2257629695717575 1.2655559575188136 44 40 41
-0.3497202153835532 -0.0052648377207448 1.0438087072611180 168 170 149
0.3253509468530592 -0.0350674812447110 1.1683491935043464 107 89 67
-0.2590532783782494 -0.0241534656959625 1.2156746602819919 142 129 120
-0.1615840086062988 -0.0336153566413984 1.2332403002423806 141 157 182
-0.0615270133662603 -0.0457544638348563 1.2374644399645485 128 154 189
0.3138439265728094 -0.0374004203463163 1.1657294040043775 255 254 248
0.3724923195703808 0.0852265740045925 1.1564542121100636 141 134 124
-0.2532256352831043 0.1380782335166426 1.1932717542525020 72 71 76
0.1459206461255894 0.0485271376307117 1.2849670132699638 105 84 79
-0.4521645545202065 -0.0186974750932589 1.0264185917887356 178 186 188
0.4103396104624900 -0.0823409458186235 1.2005727623376841 105 95 83
0.1498199475145253 -0.0302684051630549 1.3021200079261692 74 80 92
0.0009456504733970 -0.0561517299576340 1.2459995259764665 160 161 156
0.3516569767974728 0.0736298805369311 1.1591698893363322 64 63 59
-0.0897957058975758 -0.0464653746324970 1.2335711238862375 106 144 189
0.3946687319744712 -0.0974265203717411 1.2002207872569011 112 94 84
0.3658169838210536 -0.0196812350779181 1.1813536268233358 78 71 61
-0.0616445408938806 -0.0458733342425642 1.2385941071122384 102 120 156
-0.1671351903276132 0.0327670795856464 1.2287298977105054 142 141 136
0.3363386075056586 -0.0967098496330258 1.2477378439233948 255 253 255
-0.4104190261074246 0.1086147352782645 1.0099900968731350 53 53 55
0.3951455881147147 -0.0705776420183691 1.2046041969117200 103 137 164
-0.3086264813173333 0.0599876107487913 1.1990310488573339 117 118 123
0.4578393891711725 0.1702565493216129 1.1618221165995066 86 83 68
0.3371713321151712 0.1487155549513406 1.1423306653395653 68 57 63
-0.0022134318674178 -0.0827349518726075 1.2508398823189564 136 121 102
0.1558522528706096 -0.0544016552199648 1.3096200208560986 162 155 139
-0.3293683251256516 -0.0412165318524697 1.0546736246490191 127 108 104
-0.2571798046371652 -0.1046999812976810 1.2866879757697907 33 47 73
-0.0185531997337251 -0.0649028695820297 1.2517225571424950 71 90 123
0.3372319792860695 0.1661369056308687 1.1388356172539129 69 58 66
-0.2506636938849996 -0.2315122838273980 1.3952718652968019 255 255 255
-0.3289234942701986 0.0841353400814069 1.1864243557926428 152 146 134
0.3847555173345942 0.1857887815033989 1.1409934180741761 30 32 19
-0.0247486674935950 -0.0146482420520167 1.2263685592447691 155 142 123
0.1382021368086948 0.1696592865203417 1.2600429008477085 79 74 78
0.2941140475289110 0.0681506951408566 1.3016178787571704 71 66 73
0.1244928427377317 -0.0928756693908159 1.3563570503865534 67 81 108
0.3944166348239178 -0.1689201421497394 1.2775114884772294 40 56 81
0.3492030419433364 -0.1907561326602551 1.4515918342026652 69 60 79
0.2111273810195541 -0.1941386447565525 1.4603976071629352 11 45 70
-0.0404670770142828 0.2251038457047500 1.1752192270190207 104 116 128
0.2517468058028989 0.1720229142798576 1.2874294245302398 74 86 112
0.0670310484084478 0.0084147156619723 1.2739823433814246 162 149 130
0.1835772919293755 -0.1901774952729481 1.4542422705461422 71 82 104
-0.1238385486663833 0.1588000178450274 1.2159701220350996 58 73 92
-0.3284620102263813 -0.0041360614947468 1.2028702683949064 181 188 180
0.4077806154925673 0.0482459124672306 1.1845029699859462 64 87 118
0.3729748504762288 -0.1920761810019632 1.3086185537295383 255 249 255
-0.3210153294049997 0.0788988280208999 1.0300370509882810 141 112 117
0.3715858292258048 0.0725702023050760 1.1631967047083234 160 154 142
-0.0267686548714675 -0.0234993432658034 1.2264975033956911 99 82 66
0.0401553734365501 -0.1988310907552454 1.3956141066628247 153 162 167
0.0317332402186559 -0.1842892961432520 1.3930033821562327 147 147 157
0.1747088735727335 -0.1816911520608375 1.4455759453144512 45 62 88
0.2005999837237799 0.1308962108710785 1.2750945545296288 132 130 115
-0.1029773749800838 -0.2219972766649038 1.3734738743530763 210 197 207
0.4043467745324757 0.2375515052973962 1.1368544850093754 100 100 108
-0.3993290368177737 0.0133395517883189 1.0238309123267235 141 147 145
0.1670459270734988 -0.0545643205955422 1.3108812995382852 84 102 138
-0.1369932393439207 0.0431675328676024 1.2423847157402372 100 119 152
0.3825340457697360 -0.1963192997978487 1.2937360367703106 55 62 80
0.4712595741849184 0.0698001414116765 1.1818782293357806 56 57 59
-0.0022464919940952 0.1688619574673348 1.2077811127620575 100 84 85
-0.4216281874212117 0.1125462176184284 1.0076139454353665 147 145 120
0.2536561658298482 0.1087021954946264 1.2919231685973633 122 122 124
-0.4338763319537593 0.1213449130504459 1.0007984834929939 85 83 88
0.2062938696734808 0.0797655478947653 1.2899932659526565 155 150 144
0.3210177853363755 0.0544480046421677 1.1723413016617679 154 151 146
0.2857849620140631 -0.1442693940768713 1.4337400919193610 80 81 111
-0.5845608011307075 0.2399792404919940 1.0535117754225078 191 192 187
-0.0536394547100771 -0.2829984713937068 1.4276469697338148 22 22 48
-0.3304474278514777 0.0419425474404922 1.1911622412876097 98 91 107
0.1880623383693168 -0.0137627281904564 1.2954721939111065 135 123 101
-0.1643239560795474 0.1589026651765561 1.2039037078402024 137 129 126
-0.0172873903546961 0.0723379699763914 1.2307638529500242 96 125 159
0.3636831711798600 0.1541615601706812 1.1462138200367977 82 81 89
0.2130078209451747 -0.1000667577063539 1.3735538479048455 11 33 44
0.3950469403911130 -0.0706984788058926 1.2039378596706931 141 164 180
-0.3080882793307999 0.1768658430010605 1.0343784739247341 87 87 95
-0.4378315820983404 0.0856114951230261 1.0105204640458700 126 92 91
0.5377139893939368 0.0420864872307562 1.1597371044334026 35 46 100
0.3774331054410950 -0.1953721888361192 1.2966248963466773 255 250 255
-0.3207712872790636 -0.1087574071408015 1.1391290120937723 86 121 179
-0.2451789888053362 0.0242248520735878 1.2159085350472127 95 79 79
0.0246145111849510 0.2145888389535875 1.1738533643939337 61 65 74
-0.2178098126142067 -0.0821910635899138 1.2463034222078575 120 118 121
0.4714355485664670 0.1299326253917057 1.1720423270169509 58 64 62
0.5377530667440035 0.0614837673230192 1.1528282520036868 47 41 147
-0.1052311235837749 -0.1898685124242289 1.3674115139989524 49 48 64
0.4030135576292671 0.0277683899751280 1.1855525190863039 129 148 163
-0.1919679472309387 0.1491797205851660 1.2031386439328318 119 122 111
0.1474411213778826 -0.0369948413051945 0.9024228776954480 146 154 165
0.2289285360043565 0.0455374163470884 1.3008922898625164 167 166 161
-0.4389652186709694 0.0138076210573315 1.0226340481643921 148 158 134
-0.1103245809626502 -0.2261652623749546 1.3716918304536345 111 110 115
-0.3606959998257138 0.1824247628948991 1.0043138087772185 129 128 124
-0.0498449992222032 -0.2887668744888156 1.4266099283898166 82 95 127
-0.4409973428821549 0.0669153816972317 1.0127759933594838 141 133 120
-0.3213120185678092 0.1592171716585890 1.1136662670091209 99 103 104
-0.3215406591717838 0.1425962489719287 1.1171950490889146 106 110 111
0.1227900755739936 0.1447644276907347 1.2605297556849475 118 108 106
-0.3175875964886689 0.1939484012086973 1.0815105096566715 116 124 126
-0.3628262964517250 0.1907346241280218 1.0022677966556393 102 85 69
0.1450482377658226 0.1334770594055466 1.2713207222816549 66 54 54
0.2152159970199695 0.1183305289187079 1.2843624501345752 57 49 30
-0.3534768454444402 -0.0690833403419695 1.0530048736704412 117 142 173
0.3048484157966855 0.0261577307195230 1.2533668571377263 126 128 117
0.2316402932410442 -0.0551002351791237 1.3294962268151227 129 125 116
0.4414967789322487 0.0234367662602023 1.1865689606065968 159 160 152
-0.2970440556675805 0.1985842091829352 0.8041637867873788 255 254 228
0.1180257434958788 -0.0528497371504569 1.3023349952551395 141 140 135
0.1083382532482669 -0.0588064926826661 1.3030044323753318 63 70 63
0.0134557145167931 -0.0972593944078199 1.2543705723697929 125 118 108
0.3964957121151602 0.0700169942441599 1.1687371791043828 55 54 70
0.2032000415964937 0.0674246621717527 1.2919439019804113 141 131 121
0.4350796092346027 0.0212486362433016 1.1817912229032239 161 159 134
-0.0023553370019093 -0.2029460797358444 1.4069300876061324 228 254 253
0.0695652815710828 -0.0405878985052712 1.2717771888278027 47 63 86
-0.3431544404422371 0.0794747815976334 1.0290386206891688 84 79 85
-0.0472062673601020 -0.1254054825559182 1.2844185487033959 57 70 105
0.2326487714215302 -0.0238767561318678 1.3160122193238859 56 74 96
-0.1900967376427563 0.2328380518394279 1.1871270771494593 109 113 122
0.0628331603139429 -0.0227051304030759 1.2404053801983668 152 147 125
0.0067187164862337 0.0833659099938494 1.2200488185958409 149 152 145
-0.3004321371632164 0.0280329709857974 1.2151395603488535 51 56 75
-0.4141772876443122 0.0439654292432414 1.0222448759385103 82 71 88
-0.4135153275332409 0.1123568727741153 1.0085113046342582 96 83 101
0.2209987582127960 0.1255466911327401 0.5618627303884857 26 34 55
0.2267821007327404 -0.0523846123147541 1.3416856610298888 2 32 42
-0.3076994972515699 0.1144155150527195 1.0456944556460648 56 65 72
-0.0706083845820652 -0.0014722514612892 1.2208932711087184 160 153 143
0.0227807010964034 -0.1994045670145125 1.4288620167175254 46 47 49
-0.3077183271002362 0.0831939925753081 1.0517386400300470 84 84 92
-0.3171716074865887 0.1256992765981171 1.0257185843945529 150 147 132
0.3361450623489859 0.0841292364305984 1.1518776493572611 123 122 117
-0.1431016789539510 0.0272407971603915 1.2431800943883289 91 114 146
-0.4102871471309542 0.0073872862356114 1.0293241529302151 134 127 143
-0.3212159820428732 -0.0044071028416649 1.0476361154984544 144 146 158
-0.3606593935576180 0.0427914284583257 1.0290238573178185 153 142 136
0.4305192132513924 0.0720064135215123 1.1752099323521934 94 77 83
0.0121241838809633 -0.1018891306464000 1.2519547570887608 59 75 108
-0.3166744511445960 -0.0073242911569647 1.2031077550425857 167 162 166
-0.4238830018854391 -0.0691731569233952 1.0347571605596140 70 91 122
0.2621803612363399 -0.0539126050244678 1.3338910141945397 61 67 57
-0.2354980700067078 -0.0880072040645274 1.2370337589769334 96 115 148
-0.4071738921491763 0.0042371606237195 1.0299990669643366 147 147 139
-0.0042198490971976 0.2371399923932896 1.1045485477515029 37 49 65
0.3591183861861253 -0.1351779717423572 1.2466599318407272 151 171 195
0.4016509219993628 -0.0362104397256830 1.1802749325148658 162 148 122
0.4200953554107461 0.2135165249276431 1.1410457259427114 110 122 120
0.3991343758409987 0.1624382532397034 1.1537163450338943 24 36 76
-0.3213916523240697 0.1526986427168877 1.1764202084394697 83 75 90
0.3340692078742632 0.1637154598259833 1.1389851336977748 141 136 133
-0.4088268440781056 0.1221864126635551 1.0056483981593829 79 72 90
0.3336501586229123 0.1466471547508029 1.1418081083489038 141 130 124
-0.4235015594015763 0.1387768278927792 0.9985368806916342 64 63 69
-0.2990505752431339 -0.0798012383799947 1.2263676212279087 77 70 54
0.3662774972742404 0.1360705819116359 1.1500778552791198 131 128 111
0.0660009912709444 0.0892738180107289 1.2290501448787694 110 113 118
-0.3705272192367223 0.2332791754746836 0.9905042729757707 49 53 65
-0.4105349614283512 0.1086426012312129 1.0101123630326005 101 88 106
-0.4103269415169779 0.1254107749554700 1.0068703244708677 73 62 60
-0.1510759219415689 0.0862919672952014 1.2532420610534138 81 99 123
-0.3597717227871176 -0.0662368740369768 1.0432479201949039 124 141 167
0.3369162725868505 0.1630710639353470 1.1397071609068039 49 51 50
0.3048143433331357 -0.0827449181541217 1.2655826602315150 156 154 142
-0.3267583139888117 0.0808211215137587 1.1727947880314014 107 108 113
-0.4141524369091373 0.0978581980489937 1.0118084583910234 79 65 78
-0.2332979661714049 -0.0847210102348299 1.2370223847033008 175 176 170
0.3956561075123090 0.0860677713536797 1.1602281542910933 135 132 127
-0.3309785397621107 0.0690278570017973 1.1865863405764070 65 61 78
0.3383787405423403 0.0334744436313195 1.1643960936167783 160 159 155
-0.0258954338338937 0.2392332864465807 1.0794355222941987 38 55 73
0.3284571752247668 0.0771664541646287 1.1465892590237705 153 167 170
-0.1380506815322428 0.2669535222042588 1.1828488370663337 54 62 85
-0.4106519742811050 0.0472270345299243 1.0209485139213572 154 152 165
-0.0143303879458224 0.1431644961320667 1.2082159786780968 94 101 119
-0.3084682866657889 0.0429638041043065 1.0654384520111793 144 142 156
0.2063355246041761 0.0426651543325215 1.2947796198521471 126 122 121
0.4314315752593982 0.0399428643593123 1.1816574270981361 110 83 90
0.3843047255103211 -0.0798631900126517 1.2016714935280899 116 98 96
-0.3106516076946060 -0.0038437474290064 1.2067235116938815 128 128 128
0.3096590184688863 -0.0485236060628893 1.2465061054997366 255 255 214
-0.0294103443012183 -0.0239926528695172 1.2253817568141594 112 102 90
-0.4103033355668162 0.0125631819157796 1.0290556938611415 147 149 135
-0.3135996145436208 -0.0699611547245734 1.0637765455511958 47 65 115
0.3009457488572064 -0.0215833939583755 1.2376461781539538 72 71 67
0.3459616670454821 0.2213049726935994 0.9090233305079014 240 225 220
-0.3390617734403783 -0.0560644561642614 1.0477251181663709 158 145 128
0.1983770774770104 -0.0698771465538956 1.3155265052599261 28 42 69
-0.3214724288064861 -0.0384370283566986 1.0537154248568115 139 133 147
-0.4038485908087191 -0.2184894077390615 1.3044660129037899 154 123 199
0.4041838806485646 0.0536921899306457 1.1818601396228641 61 88 118
0.2048787694141236 -0.2326606357343370 1.4728605124704266 68 87 127
-0.1015008353888123 -0.2386324181823893 1.3742127109742495 106 106 116
-0.3212486647427986 0.1643281948472716 1.0154126542494826 146 136 127
-0.1217833643791596 -0.0555251053961886 1.2569534648689633 142 145 136
0.0321481519041941 -0.1842818442928423 1.3926292185852758 140 142 141
-0.3919639696655462 -0.2519239257546962 1.1621882206039316 255 249 255
-0.4388646005925143 0.1603440674542283 0.9934867863276435 152 149 114
-0.2258897046080189 0.2406754261902343 1.1613486884128494 96 108 132
-0.0412826418011215 -0.3159834313952947 1.4476985255334873 234 255 255
-0.4103378926698941 0.1526668709303907 1.0014950607809656 99 73 74
0.3065838232504593 0.1938126349563692 1.2135507910091825 69 62 69
-0.3542557244825756 -0.1347517468888977 1.3090491003450988 71 84 103
-0.4552438103902006 0.0315446857047148 1.0186587036021433 127 131 130
-0.0042638691602933 0.0862653411984332 1.2194927688757951 70 81 109
0.2290864382281990 0.0615161127856658 1.2971479470604497 137 138 142
-0.3193721845333911 -0.0080071058395026 1.1344595982354855 124 123 128
0.2072541710046024 0.0534446465220953 1.2946291461761121 113 93 94
-0.3296981839305509 0.0840781984927758 1.1868160800789780 177 184 176
0.3259104552823239 0.0355322346914143 1.1678643967522842 147 145 150
0.3147229415243996 -0.0498096781026394 1.2339454912655654 105 108 151
0.3740358552990002 0.2163064376092249 1.1348261647552289 102 86 96
-0.2828699980303180 0.1426432360186219 1.1911328538662678 46 51 57
0.3548314509039529 0.1312208713842568 1.1510895339796265 63 64 56
0.3744431074333534 0.0985362071512491 1.1585689848437102 117 114 105
-0.4004611642293768 -0.0883884621696126 1.0556412063735952 145 142 133
-0.3821139631787440 0.0920529465618985 1.0166691535011301 168 148 124
0.1581983954799217 -0.0608449092294206 1.3089122492885581 137 123 112
-0.4041595045241707 -0.2137981390187060 1.3017014600435945 132 111 176
-0.1184132001478925 -0.2103957400017251 1.3890364534646431 255 250 242
-0.2456110990563976 0.1096306507208862 1.1979149186510132 120 118 121
0.2952834826150789 0.0622179930955421 1.2896733058481757 122 127 131
-0.3253026495512431 -0.0467726910341213 1.0536909343596295 85 83 88
-0.3473012066908522 0.0295428770863525 1.0372378850019575 90 84 68
0.0687541837104794 0.0543983502370822 1.2693767710303927 164 160 149
0.3444667516231451 0.2139107421558281 1.1202684306592263 126 128 125
0.2050818084069036 0.0447725925165869 1.2960327167614689 164 160 151
-0.1657640411812685 -0.0055830446315683 1.2354238854004567 144 146 135
-0.3225945146483787 -0.0604134193427343 1.0503977024987117 156 144 120
0.4405488022782705 0.0581018218526818 1.1792153627855799 139 132 122
