ply
format ascii 1.0
element vertex 695
property double x
property double y
property double z
property uchar red
property uchar green
property uchar blue
end_header
-0.1098769451487157 0.0183514463757415 1.2439224114381904 118 118 108
-0.3123589704053512 0.0149525844546692 1.0461738185697365 194 194 202
0.1863821527553597 0.2459276928033731 1.2546096940206140 115 125 137
0.3124240969096532 0.0180222678812082 1.2103216661380507 73 72 80
-0.1826466136418218 -0.1094215306908472 1.3057845916715252 153 170 180
-0.3209780841958926 0.1457818729115914 1.1794606082613504 116 117 109
0.0342740358304827 -0.2459323260495788 1.4142267711281500 61 51 75
-0.1685356674259197 0.1393218772178206 1.2099183167256502 115 103 115
0.0292157874965535 0.2081277369877331 1.1937956279684574 141 158 168
0.4294229516530677 -0.0012917715386100 1.1912613823801201 115 89 88
0.4060273678887205 0.0044091727001500 1.1841831967589687 156 152 125
-0.3220210711816919 0.0451835646146573 1.0391676604142033 161 163 178
-0.2573122835491736 0.1115998039098826 1.1988098281456621 46 52 42
0.4574604238999937 0.0074658084431594 1.1938323163196587 153 147 135
-0.4107100145333179 0.1529765389417260 1.0026657360406501 99 73 74
0.2238935305695330 0.0286707660274839 1.3052396532598873 145 137 124
0.2611446239266880 0.0288577172466538 1.3117677464943265 128 126 111
-0.3842484434895455 0.1061361775596791 1.0215114077451624 39 54 73
-0.2697890513308277 0.0287147529819196 1.2131981304074042 164 169 162
-0.2629539041682227 0.0623329783033858 1.2069507889028270 130 126 117
-0.3846360085400803 -0.2051230393240358 1.1565200897528929 114 144 180
-0.1097539619741447 0.0676207954655124 1.2347700153849313 115 116 110
-0.4197069866034063 0.1255725492816574 1.0074756010842434 49 52 35
0.0716531370310013 0.1042658400710509 1.2358949040860963 98 97 92
-0.2536418409863653 0.1053645506930706 1.2001625014846826 73 68 64
0.3204116826002097 0.0855981458608806 1.1556791726753339 113 109 123
-0.0320664419111926 -0.2793853988640302 1.4310618633768948 130 145 168
-0.0259758769054436 0.1579677669804262 1.2069498192096118 70 86 122
0.2918076930805881 0.0214971358345302 1.3176991827091462 159 156 147
0.2939971104048376 0.2542713808217708 1.2672292303534189 52 57 61
-0.0311342286615390 0.0777368754567874 1.2159817966853201 100 110 120
-0.4110640709782113 0.0180213132702868 1.0288905677547318 138 126 148
0.3611030311316942 0.0719809842573994 1.1647246772980908 127 104 96
0.4507856766341442 0.0881130477193013 1.1730575625032218 127 132 135
-0.2622495463546106 0.1021474597749114 1.1994356841432408 123 113 101
-0.3048527466679732 -0.0882426463446667 1.2257051059575457 156 151 145
0.1660746559180063 0.1787011675935586 1.2722110946391723 61 57 45
0.1482134208576092 0.1153911936008531 1.2738722170326120 132 125 107
0.1458590959571844 0.0615941522738094 1.2845871134261453 132 143 129
0.3338347298812742 0.0449874025419177 1.1638886048903898 160 156 145
0.2853835024880095 0.1271045258813637 1.2958195462820177 62 53 56
0.1739286492076091 -0.0473374932917960 1.3208272708558604 111 130 160
0.3056305844598849 0.2281131649935740 1.2171119779928925 102 108 108
0.1992148315443339 -0.2289195789844215 1.4721674424945179 245 254 255
0.4487524229925478 0.1162810733099108 1.1737955141235106 97 77 68
-0.3460994704827574 -0.0090716116842242 1.0459478412572927 63 63 65
-0.1183771923946486 -0.1024890370404956 1.3147254540195601 30 43 60
0.2231022211483672 0.1465124371188887 1.2827298935400615 129 126 119
0.3391913972896788 0.0122296804865845 1.1704869424438820 104 88 91
-0.3806746607200795 0.2261306459729304 0.9929139868083612 54 53 71
0.3159677417047376 0.1343152671070826 1.1713527027908228 118 114 105
0.5359330292044990 0.0669213957759829 1.1667761342728373 221 237 252
-0.4106045960077510 0.1256957297670127 1.0080054277405974 113 100 110
0.3077570976496191 0.0271837004537586 1.2381899572411943 132 141 140
0.2055185974431440 0.1966549217145272 1.2699352575115210 114 106 104
-0.2785447991967215 -0.0634290094838315 1.2299383393706156 129 126 117
0.1085001296307659 0.0352269733711899 1.2859500369450403 56 71 102
0.2826671528622038 0.2543623132284402 1.2706554306051587 46 50 59
-0.0535948133599483 -0.0268158829247004 1.2218795115090999 153 147 123
0.1571364363949698 -0.0718819010398068 1.3102899566487471 121 121 129
0.3716391247343801 -0.0832897817779096 1.2138155739882173 52 59 52
-0.2031732128866875 -0.0268200168233187 1.2261306084016241 147 135 123
-0.2457071351775520 0.1335070181550437 1.1962668720631739 155 155 157
-0.2440102654425237 -0.0141923130493048 1.2244839865952655 140 134 122
-0.3269710521657342 0.0085568827337775 1.2042666665934811 73 63 62
-0.3515360967528339 0.0140115629011204 1.0403960533255550 172 165 159
0.1265114348509872 -0.0023222452016748 1.2927471589656006 144 139 119
-0.2629865775133687 0.0294336046777495 1.2136170641951696 139 130 121
-0.1910283547206077 0.0319192698634966 1.2248154891205132 137 134 127
0.0669399285812557 0.0161995040853640 1.2695279854305694 115 92 98
-0.2446035669979550 0.0465952204730509 1.2127316275150490 134 130 118
0.1148263272655947 0.0466785629074626 1.2833902508496204 85 89 90
0.1949769474187261 0.2232792910640545 1.2635478208339375 96 102 98
0.4524207974352931 0.0170728023148975 1.1921004977414733 87 70 63
0.2611199280970116 0.1616443320963954 1.2970376786242233 19 20 24
-0.3703528193268651 -0.0689591857825883 1.0433209758046200 116 136 160
0.3043881590818217 0.0772517132485931 1.2547679800916132 115 115 105
0.4263954391644751 0.0873607666963227 1.1682571016596461 148 141 133
-0.1854000022721766 -0.0115745953574811 1.2348939341449425 146 131 112
0.2896366944903010 0.2856608658091216 1.2636238801901780 81 91 118
-0.1220409600430609 -0.0644000850165994 1.2597934471843830 106 101 97
0.2292152202559778 0.1633820864281651 1.2789728820666875 140 147 140
0.3197022594132713 0.0294183438807399 1.1737509585103121 150 158 143
-0.1678349940154416 0.0491327534751047 1.2270664089630103 147 140 130
0.3150425407957350 0.2604174147171438 1.1290028445195910 48 62 99
-0.2266220309432636 0.2064647798237768 1.2045289905277714 32 47 76
-0.0118552119844414 -0.1051570463696063 1.2513911123784582 98 96 97
-0.3098732092758659 0.2140054723583996 1.0620523573338452 47 49 62
-0.4028208793495439 0.0706560009226628 1.0200184850583662 81 92 94
-0.3507533482289111 0.0703831750171319 1.0293279873399870 148 136 120
-0.0707271218089887 -0.0060114184268597 1.2222616634684953 160 152 133
-0.1808576422749602 0.2196305101421279 1.1930374499283343 54 52 57
0.1837554003895469 -0.0554551691029296 1.3188482328962381 80 78 81
-0.0305463230971776 0.2070923577802839 1.1985106201275413 124 138 139
-0.3303278701335598 0.0866842138233199 1.1871672897010541 171 177 175
-0.1242370273885144 0.0378485280432044 1.2409245486816931 66 79 98
0.4525830559949830 0.0327284551408947 1.1888612167944612 128 110 106
0.3767744012467942 -0.1739292814943285 1.2799254641731606 40 56 108
0.0504036809498723 -0.0105613298795607 1.2469285118403730 155 147 126
-0.2399596286589073 0.0643208040713260 1.2106960895579166 164 165 159
-0.3817772581939107 0.1392389401404760 1.0168103338142678 128 143 162
0.3427532771579003 0.2222549244678279 1.1280437447927687 56 66 91
-0.1797860719777964 -0.2052274327719220 1.3906204677739440 152 163 185
-0.2854262586688949 0.0878305534686874 1.2075198006801711 45 55 80
-0.3311498519537585 0.0194926920125508 1.1953755720899337 88 85 92
0.3154868638164640 0.0900526162440998 1.1652076252313435 95 76 69
-0.3542248612584604 0.1409171716949281 1.0156317291445582 148 140 117
0.3011138057201901 0.0217822046526346 1.2747571773449182 127 127 117
0.0310954817774901 -0.1464872657341414 1.3855869986405775 104 125 152
-0.2675912296945617 -0.1163481622961488 1.2891900815301052 87 97 122
-0.0590610498599750 0.1137795899808216 1.1936941239498893 143 141 128
0.2857263806803764 0.1734742267318985 1.2890836379166981 72 60 64
-0.3171878586607916 0.1592813733233277 1.0194323598772697 148 142 128
-0.0251728486623509 0.2383108753142453 1.0929788205131425 48 67 81
-0.1083800966964367 0.0374115506661593 1.2409051398594733 125 119 107
-0.1299304766037666 -0.0715340674166490 1.2603370557954516 143 130 111
0.5364998028018111 0.0354999115115167 1.1709980511090858 32 36 127
-0.2763198322269330 -0.0853852693602948 1.2279292509489450 124 126 115
0.5350868273090692 0.0380488148646768 1.1676316792241106 221 253 255
0.4053928107183202 0.1877011776172172 1.1566207701427593 16 21 17
-0.2454631853765872 0.0575709851388281 1.2108745834080112 67 54 63
0.0488643570956871 -0.0592470534817975 1.2740867005328524 144 173 203
-0.2617297445288699 0.1615362443149288 1.1890266542216767 128 130 129
-0.3218572710233666 0.1806378271178575 1.0133007532716394 139 132 122
0.3512052203263365 0.0122402354758755 1.1741704223181162 109 91 89
-0.1959416281091547 0.0768331061711020 1.2155216002332332 139 136 129
0.4528479996230159 0.1669661157358785 1.1628651521164155 89 69 68
0.0419962801467288 -0.2389502325200670 1.4113317884495222 121 112 133
-0.3084177673324450 0.1619254581359333 1.0325514648725582 146 154 156
0.3600837919171344 -0.0414438391428865 1.1740783225899947 87 100 108
-0.2734632154304720 0.0575912104902559 1.2054833228811801 130 118 106
-0.0161868074585795 -0.0712879986077660 1.2553264872324579 170 187 203
-0.2907773809208924 -0.0625933139801299 1.2298213717671302 138 166 187
-0.4254941379418923 0.1476767618579369 1.0013219294536171 149 137 113
0.4293191055019377 -0.0465384841636937 1.2008297127739482 9 31 68
-0.3156077037146208 -0.0510966955573249 1.2214839265612671 31 46 65
-0.4375200648605407 0.1836833361435931 0.9921630234945549 107 92 73
-0.3122387950533257 -0.0403240761214771 1.2159266978195917 20 40 65
0.2222317783243831 0.0130565686748551 1.3069645605586027 135 136 120
-0.4401006869756323 -0.0931451600464335 1.0472061654393863 99 129 131
0.3702669670320259 -0.0333075566019342 1.1796159598805271 105 84 53
0.2289479346206338 -0.0365425701726384 1.3245780800573996 90 106 129
-0.4119060670926060 -0.0064544360714870 1.0337214254213691 153 152 160
-0.4409625964894196 0.0765172225329049 1.0132900205291711 63 72 69
0.2518654050997560 -0.0684696800652381 1.3296185124363427 130 129 109
-0.0077257035318919 0.2012954442241980 1.2047440429309579 101 114 133
-0.4242830402103401 0.0211520875947454 1.0229721597230068 103 98 105
-0.4109556598238184 0.0211901818626826 1.0285772331041254 80 69 83
0.3384914333597254 0.0336186304735384 1.1667114985740104 160 159 155
0.5397093607780397 0.0473253493471489 1.1669311041330253 230 255 255
-0.1690124073947941 0.0680282838411321 1.2234639711390995 147 138 123
0.3429403643789809 0.0201663022139090 1.1706175652536854 112 86 87
0.2879753642510209 0.1644998746854835 1.2908497764171092 51 44 51
-0.1580013845396187 0.0777093580491830 1.2222745973356213 145 139 125
-0.3217985202550748 0.1029274968107866 1.0289249931570963 159 148 128
-0.3190045129328986 0.1063877372413306 1.1867560019855101 116 102 102
0.0189195068056310 0.1203936273837173 1.2074076139032925 50 46 34
0.3964136222797499 0.1479758457044912 1.1622083015927318 114 132 146
-0.2857856795864778 0.2415649236198561 1.1655256364160314 75 84 99
-0.2462632292799046 0.0769242999602988 1.2073498589915379 165 165 167
-0.3320028227257538 0.0384221739494171 1.0401582001181264 75 59 44
0.3590121955073442 0.0659186209989071 1.1700866720760228 118 101 94
-0.1961992592822718 -0.0818927929327833 1.2456315308471702 106 105 100
0.2016830657830522 -0.0898339870244101 1.3713804150341826 45 57 97
-0.3546240099814018 -0.0105927174504915 1.0444431744515690 188 188 180
-0.4098494110248102 0.1195426030421789 1.0082461330512704 121 104 112
-0.4397895250270064 0.0933834875246845 1.0086441773619950 137 137 111
-0.0405386220875785 0.2483303755453835 1.0525126832703640 29 51 62
-0.1698117354963496 0.0000460340376875 1.2334248269316854 178 177 173
-0.4113225819120761 -0.1796386729456814 1.1206189908670692 140 172 193
0.5359900105770700 0.0919336600397687 1.1716854179902270 74 82 189
-0.4119359200801360 0.0075688613993376 1.0315716026541899 134 127 143
-0.2373435208437994 0.1331038803728118 1.1971417370317352 132 134 133
-0.1891265902741612 0.0074260169073787 1.2308315553363294 137 136 116
0.0399618629888025 -0.1858980311236173 1.3978686186125115 129 131 128
-0.1290782877016086 -0.0672578882926458 1.2643870945955145 69 71 66
0.4570885799073470 0.1903221857688576 1.1598511153182276 123 128 105
-0.0066153181316727 0.0868501578049563 1.2345925648752878 70 81 109
0.3907361733146197 -0.1766172709366118 1.2855916577692372 37 62 82
0.0308887015195922 -0.1532825249314853 1.3882922248897795 126 128 140
-0.3261131580075497 -0.0122848574865820 1.1914502219812564 169 169 167
-0.3187720787746542 0.0020992356967574 1.2064009986951361 128 115 98
-0.2457695828032651 0.1460234916645952 1.1939189435408357 122 127 133
0.0346656573257710 -0.0143391954450217 1.2434775400224638 169 157 131
-0.2931465854059691 0.2436501169298651 1.1646505748212568 77 91 118
0.2051083874059957 0.1169009401087727 1.2854541243334776 137 127 115
-0.4389797601241047 0.1273639523347347 1.0000842786001827 145 149 126
-0.1964034879575803 0.0207008932452198 1.2268420415591055 139 133 119
0.2825983687777566 -0.0259729881884492 1.3331728285912454 32 44 70
-0.3204225423156344 0.1833656500381945 1.1002754194945876 66 68 81
0.3086699144379832 0.2689060918055688 1.1630066579465914 29 45 58
0.1905067519330008 0.0316781919851061 1.2994655499891232 55 58 49
0.1376219272868301 0.1064773652972201 1.2664201222029627 124 125 130
-0.0458038496891961 0.2317468311216641 1.1817572163174155 63 74 96
0.5413717428844239 0.2809646301742109 1.2458546644448918 255 255 182
0.3624347423995899 -0.0148418919196264 1.1814020890745729 111 97 97
0.2142913108061497 0.1553786226835696 1.2797737916461422 63 52 46
0.3886120535644489 0.1475130792024591 1.1595516955687770 109 123 134
-0.1963700231496008 0.0705059193301593 1.2167536340398464 136 134 121
0.3528932107198039 0.2119783005289069 1.1345437548972657 127 132 125
-0.0357097277273606 -0.2096194266950001 1.3867551682900952 151 164 196
0.3582629821731785 0.0997702216620373 1.1584618894858194 153 131 110
0.1372206164075022 0.0005487367266381 1.2946555875537014 123 95 91
-0.0162408484600750 -0.1122753930175788 1.2575600764554136 71 75 76
0.3372598586735704 0.1557213685906194 1.1434108545133375 146 135 133
0.4175363362208315 -0.0895767359502851 1.2034429756677087 138 131 115
0.3386347490528449 -0.0170008675612625 1.1762029947761996 117 96 91
-0.0400924835667317 -0.3065612341063532 1.4391569425045765 58 71 113
-0.3902101622994633 0.2101820699531447 0.9951053608136027 144 142 129
0.3384328070980530 0.1411833719507692 1.1464793813448293 161 156 153
-0.0858824333179281 -0.0008786212006262 1.2174708289743918 116 106 97
0.3309817377030222 -0.0422154864365656 1.1592163004490648 124 140 165
0.4120070338880483 0.0099180410514538 1.1873323949331949 87 75 51
0.0284514983429173 0.0034128566761254 1.2374781153916568 105 96 87
0.3703901035815784 0.0126000022734986 1.1767086670594060 162 153 122
-0.1841984846832696 0.0734419444275331 1.2202372150547605 74 69 65
0.2814209511163975 0.0473234700602702 1.3126853568354429 119 115 116
0.2814540842840830 0.0641188103505614 1.3095443841059284 124 126 125
-0.4276329110916628 0.0120771818506492 1.0189329167953229 140 131 124
0.3323034346612555 0.0766837386196799 1.1483132517296395 173 191 191
-0.3223827589400968 -0.0725838117515834 1.1644715389766058 165 174 173
0.3065031288323112 0.1411316781868772 1.2255807449160661 79 68 76
-0.3227558606475106 0.0241724328318464 1.1425613036587832 158 165 158
0.3163388944065658 -0.0727903032199265 1.2490954533438872 144 145 147
-0.3312456305538883 0.1398536947518735 1.0195405981714822 148 128 104
0.0905821478619453 0.0227189825910907 1.2784897429806215 137 130 111
0.3786725607395824 0.1853605635614846 1.1459411256933523 124 118 106
0.1225390215394443 0.0280598727051761 1.2851623781306456 131 122 113
0.0043168111119068 -0.1032041943950103 1.2529948867732039 152 145 126
0.0089269155654144 -0.0824950186264416 1.2534336403944826 133 126 118
0.2139151038409457 0.0521448077770231 1.2995348230039803 105 77 76
-0.2170162476103542 0.0317795149603424 1.2289827308773398 139 165 188
0.3217701346791719 0.1909658038279250 1.1491185904953760 110 121 123
0.4598427645098612 0.0506791405214801 1.1862091657569926 155 164 143
0.1230101639840948 0.0590643693256804 1.2806511769209963 145 132 115
0.1365253667427154 -0.0819694614990870 1.3529552559643443 88 98 123
0.1289556310144858 0.2106681927230501 1.2522602202212303 106 110 109
-0.1436673793179506 0.0331044465190775 1.2438379465395493 57 87 125
0.4686466486142151 -0.0401120832692956 1.2027946344021154 75 89 100
0.2759775829800638 0.1497703980956629 1.2915405766972861 115 115 117
0.0217837518263978 -0.0379032267816067 1.2492307506319846 61 65 74
0.3110622558495028 0.1485844359939630 1.2156540523994126 119 117 118
-0.2382125750078731 0.1646580037685067 1.1904145371856663 113 113 115
0.2024634907242137 -0.0388145934436962 1.3188863683403893 48 52 77
0.2146384893474913 0.2049178022230657 1.2705079586919177 75 63 67
-0.3439111036348220 0.1837491856492709 1.0102202169755949 100 81 67
-0.2712984740278687 -0.0287812559732690 1.2154401823108376 139 128 106
0.4393930923875839 0.0150498494690098 1.1898694707392079 116 104 104
0.3170941583165728 -0.0351353414411814 1.1691624804271545 131 114 124
0.3680169768252510 0.1388669277578171 1.1528843751336879 145 138 122
-0.2317379848209267 -0.0277966731414981 1.2216208277377425 136 133 118
0.3476609570212290 0.2159435852831176 1.1313454376573289 111 116 119
-0.3204791767716190 -0.0168256099953095 1.2096761152380806 133 121 97
-0.3197228673277902 0.1321280269809559 1.1091617923237655 82 85 90
-0.1183041776250784 -0.1023890496727969 1.3124384968337881 30 43 60
-0.2410353847370924 0.0803213353469752 1.2081102340193945 128 125 116
0.2922565038148096 0.0125899119533809 1.3111968087730721 122 124 119
0.3205206786871037 0.1669290471685678 1.1510280638121284 120 138 140
0.3629290897354160 0.2164629946074018 1.1363731714866390 125 122 117
0.3679798816566153 0.0543822537641631 1.1684219274814824 162 157 137
-0.3213799816386806 0.0607475564742362 1.1958968455240122 130 126 117
-0.3208938749973890 0.0454667545715832 1.0392519719825122 186 164 177
-0.3440519035775484 0.0432498439852807 1.0374680530115623 70 67 62
-0.1679990633085605 0.0658292920399114 1.2245803528308157 141 139 127
-0.3213069130361618 0.0773992864528869 1.1925457346292210 120 126 114
-0.0306317690595788 0.2009840518943399 1.1993785624759241 90 85 91
0.4269209687442697 0.1751656093712418 1.1567870600068406 125 123 111
0.3612191723663636 -0.1397818581125468 1.2528273772459457 118 133 162
-0.3817588533897133 0.1696206694800680 1.0111815497432088 119 135 148
-0.1677790466963559 0.2009183582303399 1.1982084726785656 106 102 103
-0.3834841685092085 -0.0573134641672220 1.0404044119216780 171 159 137
0.2529416962775508 0.2590073511725762 1.2610090086265102 73 86 95
-0.3170657983921211 -0.0731127823607094 1.0627263930761692 50 66 102
0.3085471151537314 -0.0723995273282755 1.2523821333761083 95 88 82
0.4523839755728244 -0.0690309012051660 1.2219679621742048 112 133 128
-0.0299755466790186 -0.0030554705124963 1.2289406129225757 103 98 95
0.3591636422375529 0.0403808367239757 1.1693030943951781 72 70 75
0.2061577454545463 0.0424814347227169 1.2996477366427863 136 125 123
0.2868970141930654 -0.0062512825066542 1.3171521411000322 112 100 88
0.3135970021184322 -0.0173897219065616 1.2086670807377300 254 249 217
0.3679657636604163 0.0207191967889623 1.1749042665889962 164 158 144
0.1181037040241380 -0.0306137645519216 1.2984938643426498 161 161 161
0.1119602066840824 0.0232512562247651 1.2861019853366304 140 132 113
-0.4576547697359296 0.0767514475896896 1.0086471101973817 252 255 244
-0.3956559462099457 -0.2387302870200668 1.1607176521444134 147 161 200
0.3080221213351508 0.0496098475788349 1.2367377686098857 134 132 120
-0.3172528375512113 0.0618704939990828 1.1139935404448209 145 151 147
0.1048247825793975 0.0234507445996083 1.2821024580070322 140 133 114
0.5233877331348705 0.2719342312302034 1.2335692974963537 61 68 87
-0.0237398274419662 -0.0265124417787956 1.2270684625181800 154 143 121
0.2083937020722679 -0.1834068177276081 1.4583581643252397 138 157 171
0.2223030827070117 0.0064171831808285 1.3098957562287989 90 71 67
0.0659530843211369 0.1190660849571956 1.2476042389688904 85 79 79
-0.4542596953913325 -0.0360850681637028 1.0305964388857540 142 139 120
0.3411582530308344 0.0277230976430308 1.1687800858849930 111 87 83
-0.1915825609537227 -0.2025408533064323 1.3883073825566414 59 66 94
0.2134712069580210 -0.0939914342725348 1.3762884829282300 4 41 57
-0.1913420236590375 0.1249343675355732 1.2035308978619559 145 146 141
0.4041091543724947 0.0369794114504483 1.1860758500544570 57 71 97
0.2528038818072994 0.2381605159264748 1.2715243938441594 92 96 108
-0.2267252737244525 0.2443208440547952 1.1795573513186337 93 101 124
0.3764470738606131 -0.1944573199510831 1.2965423249089836 255 252 255
-0.3139046328875599 0.0572738762882864 1.0370795997738149 84 84 86
-0.3144866524373615 0.1788368407468490 1.1760983253046611 136 143 149
0.3481033435517422 -0.0382191137992087 1.1802691815794200 167 148 116
0.2626883242537571 -0.0541142396877020 1.3353741173169029 65 67 46
-0.4163468243673474 0.1462390253152516 1.0030615326766115 141 127 126
-0.0678050797720031 -0.0582596355323722 1.2521049066189025 89 105 141
-0.3908648436415623 -0.2001419635939184 1.3243500079863819 255 255 255
0.4190812416282230 0.0382155252735781 1.1825463841500277 143 134 125
-0.4391595701122952 0.0246411481720667 1.0217896828623529 155 166 150
-0.1008002639132410 0.1268106856188013 1.2071353197534256 62 53 54
-0.0676758310748003 -0.0247514955430787 1.2208686032683629 118 109 102
0.1496000561905877 0.0184030921898088 1.2933286183012769 145 139 123
-0.1531572139312269 -0.0213658024418884 1.2370429107942713 102 97 94
-0.3046805862151413 0.0630338422826206 1.0621828376106839 166 169 184
-0.0997523854520516 0.0319132637136858 0.6497070623100709 48 71 102
0.3517005409781002 0.0549551422728988 1.1649963007650213 146 134 110
0.3624709885100496 0.0362491423944917 1.1733098912294835 119 104 97
-0.3105527718696673 -0.0159922694908275 1.0515194730006552 155 154 152
0.3283057029486042 0.2094708967993795 1.1338264818286128 109 108 113
-0.0133372258466201 0.1565859301377443 1.2122998134018297 113 138 168
0.2442906359981194 0.2698546064827932 1.2714768182447487 18 26 45
0.3826482299422502 -0.1958553664353614 1.2962234724437902 62 72 97
-0.3821953111091914 -0.1191612952933594 1.0680005736374942 147 143 134
0.4551546085507833 0.1725894334243586 1.1577290573628853 123 117 105
0.3370292116044040 0.0482229597459433 1.1643378485623099 94 85 90
-0.0272388527423023 0.1582971264242375 1.2091278920789850 103 122 154
-0.3216499194104073 0.0159632651306804 1.1421543678789501 167 167 165
0.2855350917635534 -0.1599301247610009 1.4377936555161814 74 77 110
0.3952772543228681 -0.0706788056958107 1.2036869733674567 136 162 175
0.4499104658064803 0.0630167225530270 1.1831226074056902 98 86 96
-0.4306234385645618 -0.1196158701631953 1.0742984492556868 41 68 89
0.2874845850838901 -0.1938806361998163 1.4441318932950988 140 148 161
0.3238206452335164 0.0727678037183438 1.1495354277034264 204 231 242
0.4713610702699533 0.0286376361598277 1.1946995716575706 108 109 103
-0.2583246554845780 -0.1058661198481739 1.2866211503493710 35 50 71
-0.0682032313411231 -0.1685410523319903 1.3461024706346074 126 164 201
0.0983412243158090 -0.0824926743018005 1.3025876773909359 145 132 113
0.4356267941765238 0.1501977741175659 1.1650312899712310 77 71 71
-0.0565562159447130 0.2372475841890842 1.1380343409831404 110 133 149
-0.1682571468252355 0.1960595667186465 1.1988809718109532 82 84 96
0.1073113906253835 -0.0248495752341411 1.3015759184365638 122 137 170
-0.3971512564548197 -0.1015868399789616 1.0553663683382837 107 103 92
0.1377018641234853 0.1699734510444653 1.2628563486199400 79 74 78
-0.3555185838136808 -0.1935354704371163 1.3229128242071306 44 51 69
0.3612924715434244 0.0125337208456945 1.1746717638070623 128 101 92
0.2678254060319548 0.0339403827698254 1.3149464011672742 60 57 50
-0.3730774300652707 -0.0690921392226174 1.0422245268182120 121 145 173
-0.3215440131091835 0.1314865801154097 1.0232727998990365 147 136 118
0.3370665670487300 0.2005726473781327 1.1347716156125696 90 85 92
-0.3442305293224737 -0.0681064185788258 1.0472159724953214 107 138 169
0.4506284594041260 -0.0728330209754920 1.2243578486953222 141 167 156
0.0013843826581680 -0.0053135022715768 1.2323397703846073 153 146 120
0.3024600929928986 -0.0666364649076477 1.2801372698634139 70 73 90
-0.4361046909980251 0.1062334875956082 1.0071762842989107 126 121 128
0.3663721835570328 0.1453071057211831 1.1516851934263657 121 111 109
0.4794911661340590 -0.0293053342243824 1.2000588501381875 48 62 65
0.2149138575273067 0.2483716601363268 1.2130564108949109 89 93 102
0.2061197774920850 0.0927105413661826 1.2891777496800187 131 133 132
-0.3142769273711841 0.1463540213573227 1.1804729896763659 143 151 153
0.3204205572469674 -0.0075535406995294 1.1714480230292945 255 255 246
0.2139995475647433 0.1888280988308442 1.2738224214918992 78 68 67
-0.3326995406566806 -0.0436413783127507 1.0541145578208297 139 138 143
-0.3064880044898097 -0.0036434571825645 1.2058329716729714 168 173 166
0.3871024539397238 -0.0447129874156748 1.1858676572242994 142 161 176
-0.2663941486101516 0.0044732225441684 1.2172743834742223 135 134 113
0.3665671566311112 0.0154389004711790 1.1767450312426964 113 104 99
0.3095324200747948 -0.0608199955583445 1.2514314079172693 255 245 197
-0.3716497927888945 0.1113609785436766 1.0217813970482956 41 45 57
-0.2304025463256691 0.4301214144723937 1.5973093426635063 156 162 158
-0.0900957314395427 0.0056439860728603 1.2168762094619274 151 145 131
0.5385691911135417 0.0598879302863264 1.1681007120047280 50 48 171
-0.4273346725700753 0.1081256607337627 1.0074188103279711 138 128 129
0.5400711549029154 0.0713140206308389 1.1689456584419391 62 56 164
0.3238825044129499 0.0838662155858840 1.1504298554965955 168 170 156
-0.4395642192975423 -0.0241402437599132 1.0308582665795623 188 199 195
0.2032207232566099 0.1879637761379075 1.2716688207935574 118 110 99
0.4325788566403013 0.1057574607041433 1.1740403830863386 48 52 51
0.2830130103621845 0.1594599561568676 1.2915469330874982 42 47 67
-0.4143708849098326 0.1632507354105510 1.0003561559650691 124 104 113
0.4136003036895958 -0.1469337680535995 1.2688348744116058 107 125 161
-0.1648556221711931 0.0743876652637344 1.2224502786105502 168 168 166
-0.3583769994011755 -0.1189002638925550 1.0632820026532870 43 55 81
-0.3523408939456148 0.1597239600307088 1.0103148318908974 151 148 141
0.0501540583244812 -0.0360454324630543 1.2563784439385368 32 57 79
-0.3784335525607218 0.2067667710118585 0.9983706841693711 86 83 90
-0.3510793443780955 0.0257827280704980 1.0391416721655868 70 70 62
-0.0258814661161337 0.2348540502406300 1.1104909912276013 52 63 83
-0.0317414225914625 -0.2092147698356734 1.3869370118782711 169 189 214
-0.3549372673255692 -0.1511674531844548 1.1108455403910040 137 164 185
-0.3854516238106115 -0.0118507300703152 1.0442462052379373 47 61 90
0.1398764566953467 0.5232713858069383 2.4902063108998718 5 31 48
0.2047785010470255 0.0284445797541241 1.3017224186617302 147 135 121
0.3955211898928273 -0.0065156238351873 1.1839160655119632 132 121 101
0.3754906928676753 -0.1995380451195871 1.2982726410344605 248 251 255
0.2513469382830451 0.0706902757198235 1.3111722075842671 89 111 132
0.2932221753625686 0.1054513461070441 1.3026190685251680 129 132 141
0.2018301682732136 -0.0900065772095546 1.3711440118042375 32 51 83
0.3557856831997158 0.0822136069591241 1.1534253211920573 92 91 89
0.3959320705038027 0.0863345493344729 1.1624747047789741 135 132 127
-0.3114717243746234 -0.0371790911267672 1.1066304899434658 86 94 107
0.3175750206735290 0.0277622373154400 1.1816048012586178 101 99 112
0.2971611961079485 0.0901460760776757 1.2874291081311138 47 54 64
-0.3075649100082410 0.1732235462522799 1.1873998692147947 48 66 86
-0.4122477482788316 0.0503780909533488 1.0178227353559777 157 165 178
-0.1896690565287539 -0.0369820904652147 1.2405746351566398 79 92 127
0.3197953662035902 0.0873776159187997 1.1546122960148515 94 81 73
0.1304897834526736 0.2080899865163682 1.2523979026018959 134 146 144
0.2053569860414736 0.1457918301072774 1.2796812998520526 120 117 112
0.2292660752789702 0.0622557117077708 1.3014291233386759 138 135 128
0.3490143275181724 0.1623264969210535 1.1429664001262398 136 131 112
-0.2335661878289792 -0.0853984529958358 1.2391815755902997 140 130 121
-0.0110335953805974 0.2010506259758909 1.2026525948853426 84 70 61
-0.4117031405902156 0.1829844618556319 0.9973004486808744 202 188 185
0.3385492935083667 0.0560479398828780 1.1626662529959229 146 147 133
-0.3634840288583417 -0.1227203128125224 1.0585819841172899 177 180 195
0.2957967364094161 0.0805095237958416 1.2893911456265172 114 117 122
0.2940189089860893 0.0681783198281995 1.3048141696766813 19 28 43
-0.2609740952068775 0.1035518193767442 1.1989913254900761 119 128 123
-0.1047145972834859 -0.0965409272386767 1.3113682385796104 72 89 115
0.2942986128977501 0.2247193148513132 1.2759884941217847 11 29 49
-0.5598899427045080 0.2554764141410859 1.0794936044338723 255 251 246
0.3675472284102201 0.0376481122320087 1.1692794607911903 163 148 127
0.3675711798325468 0.0702571075988898 1.1642815989639048 171 163 150
-0.3528800688944772 -0.1461552929983621 1.1093258140847559 128 152 190
0.0384646137659602 -0.2152221495636084 1.4018983501757154 176 183 189
-0.2612595556187552 0.1789586453108509 1.1855465732905275 103 106 95
-0.3989688686353993 0.1871458614821543 0.9938867986927814 151 146 127
0.1560210293053003 -0.0150174270553514 1.3016533065728897 166 154 138
0.1915038266888464 0.1514342077186641 1.2743733646151409 64 78 79
-0.0314551532136236 -0.2177710677968598 1.4098758785676047 151 158 176
-0.2852534046194765 0.1969488638106789 1.2114964098504293 231 249 233
-0.4093152705591422 -0.0727540621242298 1.0492469952737158 102 151 191
0.3682815697514491 0.1561064257075637 1.1482753300550459 136 127 112
-0.1304129490548431 -0.0105817304360531 1.2409649147456632 136 142 132
-0.2169515937427513 0.0317566244189441 1.2288061038822453 96 125 159
0.3456400965553346 0.1434638385404963 1.1464358004969832 114 98 101
-0.3113129800070715 0.0984662954087138 1.0877844604745159 108 107 105
-0.1197039222312306 -0.2024560739805432 1.3968049119443278 83 72 80
-0.4413474806374400 0.1417254967342149 0.9999389374061058 87 88 83
0.1294955832739421 0.2162945697218606 1.2523191612449054 94 86 97
0.4720601714247777 0.0618325055743710 1.1898631414908438 80 84 95
-0.3077178055964611 0.0539702340136459 1.0333922441776859 97 103 119
-0.3648231476989470 0.2198074869175168 0.9978494495026657 144 141 148
-0.4131225500353899 -0.0360641964209416 1.0352308937095887 155 151 142
0.4754308860790046 0.0933326925421154 1.1827899305243732 241 255 248
-0.4108314098642487 -0.0202355782760412 1.0365551709330487 155 155 145
-0.2450686988043848 0.1114556499456889 1.1995551871380605 76 78 91
-0.0563728462035816 0.0006525794109648 1.2239367083168522 106 100 86
-0.3505741891510344 0.1177126850500331 1.0219024191772956 150 153 134
-0.1982380540570030 -0.0713975954476703 1.2695605831743342 76 90 101
-0.4079208884310617 0.1378158027367775 1.0061906045900604 155 151 148
0.2959741750576683 0.1790797730506289 1.2777925077928942 108 118 127
0.0578687847622965 0.2451897842921794 1.1485535082199700 95 110 133
0.2521736152368427 0.2743435602159878 1.2694683597656344 55 65 92
0.2102761334224335 0.1306017154353502 1.2783505748630772 146 151 147
-0.0111351116336281 0.2112747467235841 1.2022559918603557 111 119 122
0.2816654169796531 0.0969013816356863 1.3035726356108968 119 124 127
-0.3546476085838517 0.1870504062123558 1.0055157376535697 133 137 146
-0.2418309169310200 0.0215963641635055 1.2179886668500635 150 143 133
0.0828259576978351 0.0278238586620488 1.2811492458602147 91 86 82
-0.2003040631077539 0.0889384432179483 1.2124382153603857 62 68 82
-0.0400620904827982 -0.2802404262223520 1.4251450189123822 134 151 169
0.4340528458534094 0.1017977787457958 1.1721982448859283 113 89 87
0.3821925779250215 -0.2069154464998134 1.3009222146380828 85 95 164
-0.1019622118502652 -0.1810983227593054 1.3713684331074545 127 144 162
0.3365879838763445 0.1213199626517614 1.1498394266501877 151 145 133
-0.1101686089089139 -0.1733877264826361 1.3660539127985056 169 179 189
-0.4038416425386056 -0.2019025494904248 1.3014353373492533 146 132 167
0.0494688025682549 -0.0206113576691313 1.2434316505738745 114 95 78
-0.2444892221509054 0.1071753828858131 1.1998414044253047 97 96 102
-0.3510554980534732 0.0257709169519040 1.0390548892322542 70 70 62
0.3491880820413522 0.1627357710635986 1.1426962842980604 156 161 139
-0.0051116384228991 -0.1097632657559015 1.2502133987722575 149 146 137
0.3964810051684735 -0.1029029527851376 1.2033610201842186 126 127 113
-0.0160256517664315 -0.0429292787036623 1.2494030700664480 109 147 184
0.5333864009572048 0.1310513558403064 1.1529799367346039 41 43 128
-0.4564997820064147 -0.0265979896058136 1.0324379207365062 128 146 146
-0.1672644059938961 0.1673020591092845 1.2047848813747284 112 114 111
0.4119398884977162 0.1802281298317072 1.1583874997988297 109 143 142
0.4717113429178069 -0.0166088381237372 1.2043939321313117 123 130 123
-0.4408910332622683 0.0110274133395670 1.0236930458051121 149 155 155
0.2858025171025105 -0.1462555763588315 1.4354689488824328 67 65 76
-0.3250033411009451 -0.0513594039351459 1.0567901949304970 169 146 114
0.0876671028879892 0.0708946739420474 1.2708083820896676 57 75 95
0.3698442823859796 0.0790285954309351 1.1643548760584723 154 154 156
0.3666072206106945 -0.1894347169714687 1.4642812910671055 79 74 80
-0.3669191911001530 0.2167738932502225 0.9947212788814572 70 89 96
0.1962050852078955 0.0018607044995431 1.3033511130736746 139 127 115
-0.4335255666114606 0.1965663485846949 0.9856401505305915 108 112 137
0.2768236903007104 -0.1747521191960304 1.4397033293924102 254 255 250
-0.4486408984961563 -0.2393728790144000 1.2951325679025909 180 179 187
-0.2116533858728432 0.2499549537070521 1.1824161425558155 35 43 62
-0.0260863647567375 0.2397920197734840 1.0819488409511362 38 55 73
0.4192234012932099 0.0989378062729496 1.1686693456288944 112 112 114
-0.3222994835966340 0.0559693811116506 1.1967525711659786 36 37 32
-0.0301985730135607 -0.2720789628829100 1.4315086625142408 44 57 99
-0.3629532147802179 0.2265897649376236 0.9981540007703446 146 156 168
-0.0330911365332459 -0.1050893822072609 1.2483390158366641 180 173 163
0.4378971969318807 0.1519503686009458 1.1633243083189404 153 158 138
-0.1048619718556767 -0.2391025470996464 1.3769354229117816 149 143 143
-0.2458377521821175 0.1958905856065307 1.1843770165359604 113 102 108
-0.0748481740801056 -0.0445436415882424 1.2335690296621504 82 105 139
-0.3130922791572453 -0.0037178791844830 1.2052458269108586 131 129 116
0.3864716616986821 0.0533217652939399 1.1790997840724462 65 89 123
0.1293637097043333 0.0231913197285244 1.2887016446567905 175 171 168
-0.0303106534074207 0.1468097522209107 1.2106427810806708 27 45 69
0.4309126363408184 0.1669604786344901 1.1596472893589189 105 91 91
-0.1045164625591395 -0.0963747431771782 1.3108184741649056 78 102 140
-0.0535278345951565 0.2069536059908162 1.1783171117859894 122 132 142
0.3439678302756816 -0.0381440652736012 1.1723196312125626 158 152 126
0.1375474754585411 0.0511666130348229 1.2846277097346792 98 77 72
-0.1526075487490559 0.0204351741139123 1.2321612793691636 85 88 93
-0.0049795777116568 0.2029949293211933 1.2043833643242747 100 142 180
0.4584243322272101 0.1256548561232577 1.1723008110467241 126 128 115
0.4595199080270504 0.0425939840753966 1.1927109220851986 136 131 112
-0.3210008211122247 0.1959870344838200 1.1695021351706776 99 115 131
0.2223608539524823 0.1946702062921364 1.2730250410377431 140 151 143
-0.3719578905872091 0.0489403295578738 1.0345307600197329 67 82 89
-0.3263720444827588 0.1967756872952896 1.1676060173372216 57 57 67
-0.1058387824460326 -0.2220248061494921 1.3754677248133356 56 52 66
0.0558380490033789 -0.1014549466597917 1.3439053656462296 88 127 170
-0.4075167452656010 0.1745248153540193 0.9987403048162543 156 141 122
0.4097833568804974 0.1517068125098267 1.1653772958651896 44 58 85
0.0776754037087128 0.0589483488728467 1.2695017275868101 162 160 147
0.3713503902413373 -0.0887338216524397 1.2034114355146723 255 255 218
-0.4074469618417744 -0.1812954742020973 1.1142139990992235 126 154 158
0.0602010987663949 0.0823439264027878 1.2337719698402398 139 152 158
0.0806820605640054 -0.0635936404355959 1.2960426230294357 105 97 84
-0.1461509743051271 0.2462626725240832 1.1895229962977492 92 110 132
-0.0118161631507883 -0.1048998247985689 1.2507528323232937 98 96 97
-0.0789124852837807 0.1219128704016162 1.1965956758342440 114 106 104
0.1300138346912940 0.1628869449825140 1.2620497110682647 129 117 117
-0.0125909773791999 -0.1024819876188979 1.2506295743685973 164 158 144
0.1674703246449608 0.2673286491765243 1.2587038522546099 33 36 53
-0.4042818442730142 -0.2133853994426724 1.3028548329466174 140 134 160
0.3081952693870523 -0.0207082226768946 1.2204007821872083 105 96 91
0.0006336640661740 -0.0499202191741226 1.2464393175881696 154 153 149
0.2722867556040192 -0.0217746648075755 1.3257723851838894 15 37 58
0.3090676347624523 -0.0306966488229326 1.2130382391312251 254 252 239
0.1749792683353611 -0.0706590290719033 1.3213860728209423 145 146 138
0.2827433463206110 0.0450313648078773 1.3139694405994986 138 132 136
0.1687397037792940 -0.0709436281710010 1.3143984632831540 178 178 166
-0.3249362514230509 0.2049454758878273 1.1674309858564051 83 82 88
0.1011571219693621 0.0094809898104220 1.2805308858626627 121 114 96
0.1446407943291444 0.0643498930001656 1.2853734404128783 96 85 91
-0.1855924031046442 0.0735824301018714 1.2198223914228019 64 55 50
0.4361558015463849 0.0925831708376512 1.1740800483921570 74 65 50
0.0149427107015544 0.2286566575036051 1.1931451228820806 101 123 144
0.3082773218740769 -0.0722905219511655 1.2517290248973993 105 101 100
0.3404196908075571 0.0074858341969671 1.1727892759087766 90 78 78
-0.2813208749230864 -0.0372152560789801 1.2153028235490391 111 124 140
0.3293949529761512 0.0748941186111472 1.1514625712342708 69 71 83
-0.2395780649043152 0.1470596303405202 1.1969530823524290 108 107 112
0.0705197575790970 0.1023425559071891 1.2569922767784401 73 83 85
-0.3908014468581626 -0.2082538277191385 1.1452152389613892 120 142 181
-0.3557144200615917 -0.0684902103656663 1.0489600764592684 159 177 201
-0.4252751690039348 -0.2177459082475120 1.2948338123088143 76 76 102
-0.1574165977472824 0.2275478565480354 1.1444541301288120 33 46 55
0.3481641018289066 0.1169892049148308 1.1531417919268683 78 67 61
0.0334549582807037 -0.1704463319935451 1.3918224610226673 123 123 133
0.2949873685601891 0.1181516432654007 1.2920043181573866 112 108 105
-0.3198357992892143 0.0659902547411809 1.1215227104486387 82 82 92
-0.1046632134297708 0.0493960188323437 1.2401265462219297 91 72 74
-0.1963758499060398 -0.0903020976132674 1.2655834706206686 51 67 103
0.3169770339094164 -0.0243695290574989 1.1952179942567276 255 255 227
-0.2951067655292534 -0.0906448498995410 1.2321481456352439 145 139 141
0.1767290120708494 0.1544690385742152 1.5939529104992280 60 61 56
-0.0009980989940906 0.2426015010329935 1.0788430231903703 66 81 104
0.3236885034632593 0.0739729719571326 1.1545597244611994 99 101 113
-0.1094830133361522 0.0985789995412136 1.2238472651815626 113 103 102
-0.1057657971164737 -0.1706202805872548 1.3653358095765229 56 59 68
0.4419191147555260 0.1445500254889600 1.1658988358614164 138 130 119
-0.2614403929284489 0.1066087492332819 1.1995340437922408 73 66 56
0.2826916320437917 0.0664813796663969 1.3091192925879966 125 112 119
-0.4118029344920655 0.0264654415751893 1.0274764224716937 193 196 201
-0.3206352330187920 -0.0370804689508136 1.0557103606995575 84 72 92
-0.1095694105788074 -0.1653715225781681 1.3645163389558603 136 149 165
-0.3018480903390746 0.2053413460637807 1.0173259256842406 58 70 86
-0.3238145056235721 0.1551484576322781 1.0189913169565452 82 64 62
0.2264058230635662 0.1550139463848750 1.2817087505112379 120 119 114
-0.3867687159496475 -0.2075466346870518 1.1444321414734875 114 142 181
-0.1608734331680412 0.1845519219915402 1.2003261625502868 138 143 147
0.3724378421272395 -0.0812287122790465 1.2106740899522521 132 130 117
-0.4228574190113041 0.0863513608357260 1.0139784311362441 103 79 75
0.2943941930275819 0.0939714229102744 1.2913655056398960 116 121 115
0.2830117796841307 0.2264139216020240 1.2794811455911121 31 33 54
-0.2268321439625518 -0.0124978899495960 1.2281164075746738 105 95 94
0.2323989274386702 -0.0274020765577256 1.3201701612680883 159 165 165
0.1376994192276146 0.0332701198956164 1.2882811213652161 118 103 98
-0.1590650438839835 -0.0365679733749737 1.2461073616424225 50 78 102
0.3263763504334259 0.0370911805292581 1.1702899555217985 154 159 163
0.3997095849075357 0.2378213432758833 1.1396813397074095 101 102 107
0.4256917279155388 0.0226455904402648 1.1865185707412209 156 153 134
-0.4063441098104758 0.1982163548289192 0.9950530524017238 76 76 78
-0.4380269909653897 -0.0244250419969652 1.0269346694071460 143 155 135
-0.0521096557127939 0.2462025078204948 1.0902385131446111 85 87 108
-0.4259157393053800 0.2154936542485186 0.9896466941118610 162 158 157
0.3755979890016095 0.1030819949309365 1.1588806692444487 149 150 132
0.3518091695498525 0.0593038131437593 1.1644710051915534 169 162 144
0.0987263888078386 -0.0739208751052966 1.3005894850357307 149 146 137
-0.3211614880646831 0.0849257627779247 1.1492300131120987 155 161 161
0.2928623170335166 0.0062143793945113 1.3154186327226756 23 42 38
-0.4111341867585466 0.1329274032487535 1.0068770694815643 166 154 138
0.0152470833435601 0.2427773946194089 1.0807095883422264 49 65 88
-0.0975257492711783 -0.0293964931835924 1.2128829673250485 162 155 136
-0.3580425414331151 0.1497781070144594 1.0145024066339625 132 117 96
-0.1634159312009775 -0.0036595902194197 1.2359290103162177 183 182 177
-0.4339775944603264 0.0769366403032411 1.0135266440859072 71 74 79
0.2875017662031994 0.1194395566924152 1.2986936908430098 62 56 56
-0.5070670027998154 0.2283536674653514 1.0371576163210368 250 240 181
-0.1453571660655913 0.1353733706270220 1.2130422007504682 141 134 128
0.1290078199353700 0.0700375701297277 1.2798818399147602 105 90 95
-0.0947201059106127 0.0024994296464358 1.2218843586776955 118 107 103
0.3673572319387130 0.1609322146681274 1.1489043820501339 108 94 91
0.1185779756809413 0.0864601367671660 1.2736631876028088 171 170 152
0.1867726549654320 0.0261194570542268 1.2970900896035606 150 143 125
-0.2611247316287586 0.1790242793168026 1.1848453235334588 133 146 137
0.4053695097190059 0.2038951381040764 1.1534084101152393 33 30 25
-0.4104578601001427 0.0288316197702617 1.0266701350969387 151 153 142
0.3800303603530206 -0.0476345308964720 1.1891246874397463 103 115 141
0.0408666902273662 -0.0273351308631985 1.2498759226256728 148 131 105
-0.5116734746717011 0.2207457818519061 1.0450490269178812 224 216 195
-0.1089111611793402 -0.2285459726129622 1.4250971618035086 201 197 194
-0.3505611564930862 0.0938380027744720 1.0264167468058243 52 50 35
-0.3205730728799605 0.0174215206967676 1.1355044490760600 141 138 145
-0.0459102134918722 0.2405698494473793 1.1040446284478713 41 63 77
-0.2313450520919362 0.0761237863339310 1.2088219012284527 85 94 109
-0.2156729435741070 -0.0855043783449765 1.2445320864287994 145 141 132
-0.3581439453242214 -0.1138977759272222 1.0650317101412474 122 121 103
-0.3508887713067912 0.1105987234963290 1.0230117316422396 56 56 44
0.2877461768558552 0.1484870769139730 1.2932798156603600 57 59 74
0.0070200779297779 0.0154911135943226 1.2339169718891163 104 100 91
0.3173085227509246 -0.0064760066432271 1.1872207752254991 146 103 86
0.2413434933500798 0.0388780903063604 1.3114815042546024 66 93 123
-0.1765878804365333 0.1596593835773989 1.2042071578869695 70 61 62
-0.3171127251768636 0.1421764217813983 1.0219036882231103 182 177 173
0.1472400417410279 0.1604459117427103 1.2652518421409176 122 121 116
0.3631527862446977 0.0065841820919446 1.1776141087817882 89 71 57
0.3384430520796226 0.0167500594302985 1.1700333585345100 176 169 161
0.1293747380249793 0.0638386754693022 1.2811451964904474 105 85 84
0.4266555295132436 0.0851860799543852 1.1700735098320776 75 79 82
0.3995196259823165 0.0652563050441974 1.1825235167358887 28 37 78
0.3626069034567839 0.0932542371681920 1.1602001266738644 147 139 120
0.1311470069170977 0.0348357730793755 1.2881140927909416 131 108 100
-0.3359201157855242 -0.0011084764656967 1.0465522977787527 191 196 200
-0.0253110228755477 0.1538260671440406 1.2092441311258642 83 97 124
0.2065027200224012 0.2084231185909524 1.2677815756769588 48 50 49
-0.3133527784091247 0.0620307247390294 1.1972804361459830 160 164 165
0.2055144725226493 -0.1877822288799344 1.4605358485225024 121 125 152
0.3547315114054693 0.1332360331517160 1.1513839127472325 155 137 133
0.1962820463636379 -0.1763425226340606 1.4473538298537241 97 114 132
0.1373359147861786 0.0956673166344092 1.2772289246929192 108 96 100
-0.1848176421963025 0.1787768906966665 1.1995910174013880 68 65 74
-0.4536555942871950 0.4009013325201277 2.0405304588730240 28 38 48
0.0034775583200341 -0.0758883083708848 1.2515962655162496 85 77 66
0.0144219727400461 0.2428928235371312 1.0809707599064933 36 48 60
0.1289012399446572 0.0533314662876746 1.2826487032770622 98 84 75
-0.2006222008058770 0.0189781466715523 1.2254890468504853 119 123 124
-0.0178457328800044 -0.0858417912778845 1.2477088980546349 160 154 140
-0.2980646246855769 -0.0542088045140433 1.0574074515288712 156 146 136
0.0821257371788209 -0.1865791814478467 1.4323725863663137 99 113 140
0.4416611229503741 0.0843996997828821 1.1546919445037500 104 107 112
-0.4030470296740293 -0.2330953392147506 1.3103194892247070 164 143 200
-0.1687088817564442 0.1283220838034820 1.2120380827103305 62 61 59
-0.3294961018298962 0.0347258603315612 1.0419238649241529 109 107 112
-0.3288887432902941 0.0267031437089618 1.0430465668303490 55 57 43
-0.1979593971204668 -0.0715468077613881 1.2694316840528788 73 80 99
-0.4299850456603272 0.1065794172387583 1.0089235291780450 65 60 66
0.2851968361675642 -0.1741322934840329 1.4408395193342760 81 75 89
-0.2206693485858063 0.0577656383483093 1.2249646629453821 52 73 104
-0.3621570018540079 -0.1080746666957422 1.0815665694593468 103 116 133
0.2229661585211924 0.0944222172341839 1.2919998225385245 156 157 149
0.1573458799102223 -0.0470329819617446 1.3104692653046492 146 147 139
-0.1693778173008208 -0.0098362571307531 1.2379572118065816 182 178 167
-0.3853305345081677 0.1068822335957294 1.0221666989221807 63 66 99
-0.3408591780183249 -0.0546872612255604 1.2214828038369432 129 156 185
-0.3512859237440507 -0.0242011951594626 1.0483194485447105 89 86 77
0.2243179044368331 0.1182023951291783 1.2880713401490127 121 115 99
-0.3351329380238468 -0.0018911748570837 1.0461381939405019 170 175 179
0.0906659260963250 0.1423658377673801 1.2564347848419435 128 122 108
-0.3109905703947867 0.0744445626795660 1.0933890987450769 149 157 159
0.3864220325504646 0.0371802117780171 1.1831436310646217 56 86 114
0.2976379487356449 0.0296495820790987 1.2949654655274994 64 57 73
-0.2622834562896892 0.1814010688019400 1.1843455572245571 111 113 112
-0.1130522996466654 -0.1079431248995388 1.3186462054807440 121 141 152
-0.3908976794961200 -0.2188454755232879 1.1682285452589680 130 142 182
0.2142657528222363 0.0243459769250410 1.3043962935170215 91 81 71
-0.0056881068481625 0.0624619569533071 1.2290312268559038 87 113 148
-0.1770631874487490 0.1077844768484850 1.2150032630215604 122 110 112
-0.0245418749913020 0.0241157784069754 1.2319839466830742 57 78 105
-0.1239582230225805 0.0216300152063945 1.2401061591883129 67 69 64
0.2261317671849466 0.0998526844208734 1.2920516497079781 136 133 124
-0.3279815409015207 0.0437828203833926 1.0373385859077977 115 109 113
