ply
format ascii 1.0
element vertex 696
property double x
property double y
property double z
property uchar red
property uchar green
property uchar blue
end_header
0.3679220004574959 0.1899792787707417 1.1423266632111020 132 129 114
0.2699802105192072 -0.0078337950894818 1.3152383918992856 73 64 49
0.2067096561699183 -0.0096961543610330 1.3043027459397221 62 55 36
0.3282492589018178 0.0966621229942543 1.1524220527647611 137 121 106
0.0771537986931601 0.0754709586702227 1.2670868226012082 155 155 147
-0.3708316803595867 0.1222406968994464 1.0164098612711578 103 122 137
0.2293006193640405 -0.0653813785555980 1.3233489094631032 128 118 109
-0.4246874317468440 -0.1917391644836414 1.3401573958265927 255 250 255
-0.3951293030579886 -0.2573494647823923 1.1635346534661204 82 99 129
-0.0998243169523133 0.0127393242265186 1.2469141098784196 60 53 45
0.1609155809986672 0.2573544987016502 1.2184490625205993 6 21 40
-0.4293945126032505 0.0572288430578374 1.0142496068033333 93 95 107
-0.3944280393058510 0.0573260030492340 1.0242319610734565 135 132 125
-0.4378263068120850 0.2165091426191096 0.9832714047310100 128 110 98
-0.3071135523001398 0.1675680125050039 1.0168061378664652 155 150 146
-0.3076725971567031 -0.0351388183191774 1.0759447192386908 111 108 117
-0.5084996508553643 0.2396804091326367 1.0566228563189510 81 68 24
-0.4089200243164916 -0.0265387107867475 1.0382732457223598 193 194 199
0.2826548909283457 0.0420372537444130 1.3138650125597318 86 71 76
0.1950207774295855 -0.0615159864707726 1.3406204986769221 104 93 97
0.0382189305814382 -0.0860126652123273 1.2946643503534951 118 141 172
0.3147870754095900 -0.0461266510695219 1.1670727147752074 79 60 92
0.1294197355700919 0.0567002565456903 1.2815372454777836 158 145 128
0.2887559491340349 0.2872062964047222 1.2591024102779182 0 18 32
0.3437544749999445 -0.0202911245001576 1.1777717517879467 72 64 61
-0.0271677337231081 -0.0646844839133092 1.2447798319856269 81 101 138
-0.2284981087722830 0.0943268266514525 1.2017360140944655 122 126 127
0.4045065394571090 0.1480988233868021 1.1637501999016009 103 123 134
0.0451395095864770 0.2219830970141348 0.9853054287351153 56 77 96
-0.0007830189777184 -0.1048282063718755 1.2519128758420166 105 87 75
-0.1815971487791048 0.1021975001558810 1.2133359310202092 89 77 65
0.0425438420911384 -0.0017794050954481 1.2433405406598663 161 150 132
-0.4113358039385031 0.0999052356264127 1.0127309857699203 152 134 134
0.3771241252138763 -0.1899816463083576 1.2902979550630547 72 54 138
-0.4123218304342170 -0.0285950484501793 1.0369842628943091 95 80 83
0.3910192498140198 0.0215775312684277 1.1839171101066039 53 82 114
0.3631856585141228 0.1637344435471457 1.1470190699375071 93 80 71
0.2726814117965825 0.1036076103237043 1.2976327145820812 128 128 116
-0.3217616132698761 0.0969218328831015 1.0294749570355437 152 137 118
0.1283638361734148 0.0809529088643419 1.2778243819201642 88 79 72
0.0783535344777246 -0.0319771585891259 1.2897184422869574 148 164 177
-0.2462747381251314 0.0491096408320159 1.2123304589262669 142 143 145
0.3483188969604412 -0.1989423934616962 1.4569044538723022 100 84 94
0.0422345215677390 0.0449266347880131 1.2351772660046703 122 114 103
0.3779680375823534 0.1685140237610534 1.1475171130834789 134 120 107
-0.3020911958668418 0.0334610988012630 1.2140095240581916 118 135 155
0.4611450536276412 0.2159049866520705 1.1537113192340873 112 127 132
-0.1672133702548375 0.1049526869680267 1.2158780054701608 128 122 106
-0.4146557863362039 -0.1712219622877052 1.1146544438839316 143 178 198
0.3188666862616659 0.1111883353430376 1.1622192694017568 87 79 77
-0.0207478336078963 -0.0234139072515365 1.2281504843886069 130 118 106
-0.1816694162210114 0.0314017833368447 1.2280194775909932 87 80 74
0.1490694913801439 0.1360275025333136 1.2702009357628323 142 150 137
-0.2608028093071290 0.1451541108584498 1.1910266189334360 114 111 104
0.3503378081503842 0.1329097104855974 1.1497029560266727 147 141 117
0.2813478216984753 0.0641572414277525 1.3092573443361797 108 111 118
0.2069742435689215 0.1607521356727260 1.2774423722391610 122 121 117
-0.4372993542463570 0.1836246165613807 0.9919472020035432 107 92 73
-0.3153480634007921 -0.0510228344996132 1.2211034565107368 31 46 65
-0.4014458541221522 0.1915569506339618 0.9957069538453803 162 153 138
-0.2454467830608376 0.0607302780499299 1.2091688112775414 139 142 151
0.1458402806322059 0.1664535633648712 1.2641477093050355 115 100 107
-0.1895042456031990 0.2318978194826022 1.1828334568434091 118 131 140
0.4192553021474618 -0.0395841295540352 1.1855386522291946 70 81 85
0.3705041206869870 -0.0337766795897765 1.1746187232493059 150 131 98
0.4098259570027487 0.1814811838624586 1.1587613812198880 9 33 33
-0.1731747907941065 0.2478672011967331 1.1383305533513268 80 90 100
0.3955758343564364 0.2324432195832498 1.1342607269820719 124 129 123
-0.4365790924460709 0.2064842694823499 0.9851987509991309 170 170 144
-0.1706577088234816 0.2509451914208325 1.1386636215135073 36 48 70
0.0090032816990887 0.2440083353396585 1.0698106135250012 54 70 96
0.0333827149572485 0.2482188108927307 1.0552333917097796 67 85 105
-0.1036039278882531 0.0762982887524267 1.2365889004415964 57 51 51
-0.5867920514937477 0.2434036242444191 1.0531393875264441 199 200 195
0.5303161965552181 0.2666759873757469 1.2322280589033836 32 29 48
0.1893357329681545 -0.1930988599766255 1.4543084387873151 96 103 121
-0.0917818371907325 -0.0086335737311478 1.2216011610320172 162 153 136
0.2022047271952313 0.0363024409277218 1.2989314417901547 135 129 115
-0.3966959006223243 0.1388149862664985 1.0127841955832639 112 131 135
-0.3107709006567255 -0.0550356406303086 1.0551031782790439 106 87 70
0.2486721706707286 -0.0581367012796017 1.3253448483573187 154 138 122
-0.2459365168693941 0.0769156765474621 1.2067157696517326 165 165 167
-0.1084824420033909 0.0611446219346834 1.2358524673073696 91 81 71
-0.3758720164554655 -0.0582553401216269 1.0409740679271822 150 145 123
0.2853662198777280 -0.1576789067236235 1.4366155839382035 103 107 132
-0.0480021487168772 -0.0850822252582099 1.2755196655471925 77 86 103
-0.3217818736499776 0.0010594030086829 1.0476488025958641 154 148 148
0.2295398348555064 0.2138050101439864 1.2709435127014090 97 99 96
-0.0287082136653393 -0.0312182854999715 1.2317730628088004 88 91 106
0.3339902283848143 -0.1222162520720009 1.3919922624755081 251 255 248
-0.4242121200957669 0.0253513019207305 1.0225359185767737 130 104 89
-0.4584653055927015 0.2196976753032363 0.9782293979679565 176 164 178
-0.4106582921824484 0.1026917914409698 1.0125945733555983 107 96 112
0.2755602522175977 -0.2033887304708979 1.4463228667195214 251 244 236
0.4003261137882902 0.2329582860644701 1.1380932116197113 134 150 147
-0.4562642358571149 0.1690325381468258 0.9913154270635605 143 137 139
0.0408687516780583 -0.1517231387504597 1.3873940927674699 117 121 132
0.3191663572597422 0.2049898913833054 1.1454614289417717 124 130 126
-0.1625111097997641 -0.0540809769338617 1.2586990357790853 34 50 73
0.0074036921206515 -0.0880932311351057 1.2892166347310157 75 83 96
-0.0963829058828307 0.2315557426268280 1.1641836516163828 96 104 123
0.3039058166473138 0.0192848895588306 1.2532827168510972 119 132 140
0.3596847149520478 0.0899192899068355 1.1600763172435646 115 87 76
0.3733995657006168 -0.0835726236196862 1.2005486403277241 255 255 234
0.3871833495820379 0.1563595320789334 1.1581056751413730 55 71 87
0.3371493982636974 -0.0956127408433222 1.2400443965416201 225 235 226
0.0001682950419772 0.2359620202162413 1.1165320729443362 42 62 73
-0.2535794629270383 0.0379890703081606 1.2127609378224113 93 78 75
-0.2534072575897566 0.0205932768319312 1.2155482290007513 104 99 103
0.1222419950221331 -0.0122225067836713 1.2869456469583775 91 73 61
0.1991667532229773 0.1787804575285878 1.2708824311690106 109 110 112
0.3847860427165193 -0.0325966323717402 1.1820139234369886 115 91 65
-0.4391534545201182 0.1888093369271918 0.9897112656601363 145 123 109
-0.1337781211872415 -0.2056248819162222 1.4048645859764590 89 90 110
0.2710826932130300 -0.0645227100969698 1.3297976580430897 134 126 115
-0.4051612930540429 -0.2137641927789808 1.3051528144946096 123 106 161
-0.0362167123255003 -0.0481596747096235 1.2414143099907198 128 125 120
-0.1850777062836065 -0.0111879307056228 1.2348941902171509 149 147 126
-0.0037920534780356 -0.0165021055923308 1.1616519318947307 116 106 104
0.4106985840132980 -0.0092708490220279 1.1840654071575043 156 144 122
-0.2929238120582340 0.2069194533175932 1.1768078469190792 15 28 60
0.3981887182924363 -0.0410796268338076 1.1830365755241208 110 127 147
0.3584706052830995 -0.0289067536762173 1.1835194842765704 168 140 93
0.2878583702417895 0.1485324233466459 1.2934429777763830 57 59 74
-0.3203687204742826 0.0379042745238015 1.0413632701054634 67 53 66
0.4462104244096403 0.0670543221024125 1.1817186244842355 69 64 70
-0.1445513942235853 0.0040612964026682 1.2398800809837838 130 111 96
0.1528998319350187 0.0260285606404256 1.2901108068070726 142 138 127
0.3037450903025161 -0.0336214302644982 1.2245740510660621 246 249 242
0.4102106829499731 0.2088433531261956 1.1518968512288723 47 59 59
0.3515840640251323 0.0849603628306512 1.1559456195164013 156 150 134
0.3522515345333496 0.1399320039254250 1.1488257284651682 168 168 158
0.0246365475776110 0.0083645694734991 1.2395623650412830 171 164 146
0.0334849158339116 0.0188332609647959 0.8848106785745388 160 157 140
0.2215933793708612 0.0428508183107675 1.3006427796852011 163 149 136
0.3405855335086286 0.0001020928656991 1.1710349920767471 117 90 97
-0.1003187304599778 0.0708179735925839 1.2356937488580910 119 103 103
0.2822665667827083 0.0693102445607420 1.3074859596318766 83 73 81
-0.2102471379158278 0.0525178255966361 1.2270821924898927 103 119 142
0.1227887813629131 0.1450018935807106 1.2634548028134767 114 113 111
-0.1083072774098673 0.0810910909367626 1.2312634091236008 112 103 104
-0.4109250399895871 0.0073853216964728 1.0306887807631271 64 63 69
-0.1086739813054551 0.0493159048896317 1.2375989953133779 132 122 113
-0.3247797335477761 0.0602655079635533 1.0356008716873217 112 111 117
-0.4226867109441330 -0.1458951216482189 1.0927173393963940 136 165 169
0.3404849105307871 0.1110823389766776 1.1526842186001753 80 67 61
0.3054529499378982 -0.0704215195446035 1.2642058008187351 143 146 137
0.1879396042045773 -0.0759119337093761 1.3177276621609202 149 143 127
0.0089449873864400 0.2442820782713578 1.0705134888429639 49 65 91
0.1919348114569943 0.1512834918040867 1.2784071470374569 37 43 39
-0.0172944545463151 0.1259028538302474 1.2049810104736516 85 76 69
0.0064069957886319 -0.0261920935309976 1.2324455583410323 139 132 103
-0.4102602168981386 0.1939999208042622 0.9929222927645269 165 156 127
0.0119170404738042 -0.1014606167718215 1.2537303066234178 36 55 72
0.3218495164069749 0.1227506803575166 1.1613465283178450 139 147 149
-0.0183551204561348 0.0908952293578527 1.2230486241009222 82 97 126
0.0140595820157345 0.0952031548522639 1.2009896889858256 149 145 133
-0.3225494041464415 0.1055645346375890 1.1901175513619218 59 50 51
-0.3251514591046726 0.1092102470071420 1.0267214318263198 118 106 110
0.3442784267229173 -0.0347854749937002 1.1742556407681812 122 101 80
-0.0984588656910127 -0.0139997485266313 1.2428000075609364 113 103 101
-0.1924542326706216 0.0661799749032955 1.2179649197383748 163 164 159
-0.0713052472853818 0.2486868321982872 1.0927205037757628 29 50 67
-0.3574684457569257 0.0144129702614108 1.0400095138268626 187 189 188
-0.1770069789013694 0.0398102430115721 1.2272027654949818 130 124 124
-0.3111161496669171 0.0742391017885495 1.0351687757453345 126 116 106
0.0143311619986628 0.2294547204823568 1.1926972318113886 105 121 136
-0.0397388885845048 -0.0980289374953371 1.2422908747325840 174 158 132
-0.3469040889570504 0.1658649671417180 1.0125276705913933 78 64 55
-0.1814730281321145 0.2368026176842514 1.1837633581572935 50 57 67
-0.4028203423709287 0.1022586612935540 1.0158047565260813 152 135 125
0.4570423779765304 0.0187100169905093 1.1933921151806111 107 100 90
0.0226641510025851 0.2466364790891822 1.0642930603409879 38 58 67
-0.3944080404289966 0.2715003654944765 1.7334707269862122 95 101 151
-0.1439591521476660 -0.1870737870015156 1.3808433235282245 67 78 100
-0.0252898482082364 0.2077201862704217 1.1999282367342932 103 99 122
0.1547896932625215 0.2637636972711106 1.1982812052817899 82 96 105
-0.1440019892053643 0.0718459888673193 1.2378130714773441 60 80 115
-0.5149427479978536 0.2455652690500184 1.0250698174246764 161 147 112
-0.6151683657352646 0.4647504399404411 2.7945978356004142 224 247 227
0.3434294238720043 -0.2098386054608738 1.4564466706236374 132 141 150
0.3371149864551622 -0.0773536548547170 1.2034709928808653 130 140 176
0.0454960166650329 0.0911541488860109 1.4951985446004161 241 255 255
-0.1381272183184847 0.2485995168615831 1.1929835386348158 90 102 118
-0.2650036573243811 0.1219042155136083 1.1945161791794847 126 124 111
0.0420724879998440 0.0145480127433227 1.2405486535835313 123 113 103
-0.2307902709782942 0.0882681351561163 1.2075498414034465 53 65 77
-0.3286707382641176 0.0153914796359995 1.0450837756621851 126 117 118
-0.4015929579976771 -0.1988418413450494 1.3098231848565729 255 255 255
-0.3215852883627447 0.1768034066151652 1.1117510953756966 137 139 138
0.0317301572667346 -0.1997473779919116 1.3958012990316189 168 169 171
-0.0296995029365908 0.2134628973549372 1.1979662147655608 61 58 53
-0.1055976459056843 -0.2219062564298192 1.3745723527388756 56 52 66
0.3963263289468156 -0.0941083084576494 1.2020624251486889 173 174 168
-0.3408943302192850 -0.0697615369182723 1.0616542429756057 159 178 208
-0.1008883342473658 -0.1807511149480177 1.3694466538814059 148 151 160
-0.3315844202497929 -0.0559439550279204 1.0509715266074859 169 163 141
0.2760766164972772 -0.1914900269130312 1.4423658908906798 255 255 255
-0.3501839987694613 -0.0214529022955490 1.0474284648731613 153 155 134
0.3674521604829101 0.1842037897695235 1.1436677360712011 64 63 45
-0.2444174322743907 0.0628001676383542 1.2086615763666679 134 131 122
0.0587913299375705 -0.0423612842660772 1.2633595817493661 118 151 186
0.2221469126673071 0.0431514428789847 1.3008756053337314 140 142 131
0.2653657207823705 -0.2014536933200159 1.4986724375736116 255 248 235
0.3375709064260489 0.1325829863207241 1.1471914372083645 103 87 98
0.3620122859957751 -0.0505018281294075 1.1930800426116301 39 59 86
-0.4181656141720344 0.2307813280313475 0.9492750150387794 253 245 206
-0.3216678958636686 0.0973103740034589 1.0298380548691792 183 180 165
0.1945969185934483 -0.0623050976406652 1.3204764415602062 163 151 135
-0.3319553729222326 0.0071455688291431 1.0452188295155023 147 149 128
-0.3844695653361703 0.1260017967384574 1.0181812628635076 55 60 115
0.4336803154970999 -0.1029717145657283 1.2423310594543022 134 165 160
0.3953608127488599 0.0282598727017730 1.1848226743060366 108 126 136
-0.3954846312898682 0.1058142981896700 1.0219404337981521 26 46 44
0.3979849378541787 0.2578854579525322 1.1290785041911162 69 77 100
-0.0431475720739496 -0.3176763727918581 1.4453506761501198 81 77 114
-0.1252362324266931 -0.0335463055249424 1.2526330719017726 113 130 150
-0.4092290597104471 0.0763919480238205 1.0113977759476949 57 59 72
-0.0658503067033419 -0.0113101284937398 1.2239339214168485 110 95 88
-0.0434081640297884 -0.3257708552758057 1.4471691030739628 50 54 115
0.0036097590524564 -0.0391509650874072 1.2443028011629436 118 118 116
0.2093998430673771 0.1092182136967924 1.2819826413776183 120 114 114
-0.1059835033104863 -0.2368806632696919 1.3881776424384098 129 132 149
0.3088308361162669 -0.0324550764411981 1.1942512042440683 255 255 250
0.3191375589068822 -0.0537129632849308 1.2315168464383142 103 106 139
0.4270597151225749 0.1589337924934064 1.1591707709195920 157 155 134
0.0383797816581372 0.0302880914210752 1.2358778070893306 133 124 115
-0.0114622034282929 0.2139956796337677 1.1999276463769000 54 61 69
0.3450704248662452 0.0720537679179920 1.1612484125574878 162 146 133
0.0404248874709858 -0.0123935636104605 1.2437958344440219 107 93 90
0.0553318589675856 -0.0122539277724597 1.2455747228318608 104 94 84
0.3516150756823550 -0.0290947794187563 1.1769775648628689 173 147 96
-0.2619048853268972 0.0074714539374788 1.2176168759036390 83 71 71
-0.0066687865849980 -0.2121274210740815 1.3990183322142946 201 240 255
-0.3031198561037362 0.1992932172324359 1.0279033159661306 123 137 148
-0.1132754475607663 -0.0013779646333179 1.2421225524331814 141 139 124
-0.0515968802153835 -0.1936371335425263 1.3726149316676166 81 93 117
0.2434494944702268 -0.0111292955489550 1.3076984926786770 135 122 103
0.0067300589092997 0.0071547124711273 1.2349777430831033 166 159 143
0.2778175664836646 -0.1752326101502297 1.4434379426651374 253 254 249
0.3799423713251118 0.2099832742797821 1.1399156828750576 120 122 117
0.4199898796192353 -0.0389691988040459 1.1854827158534509 109 104 110
-0.3300090803502209 0.1556284168473863 1.1731356104952690 137 141 140
-0.4142953278274358 -0.2153374734769982 1.2955713545844689 169 178 193
0.3043074409632825 -0.0090293988305401 1.2609921653815863 130 133 124
0.1435696836512277 0.0106927575080679 1.2891343912611768 149 138 118
-0.3598036186490222 -0.1070192027879656 1.0753176029479421 43 53 62
-0.1052031073729605 -0.1918320635710436 1.3685186985915252 107 121 130
-0.2244361227894427 0.0420707022853162 1.2279038974461967 111 132 153
0.0135317411234836 -0.0971292049719489 1.2553552152153065 135 128 109
0.3044923092017790 0.0192778697587078 1.2550027336735963 148 147 152
-0.0156195947078605 0.0306438676914411 1.2352763975993000 118 140 164
0.2953171972360255 0.1712437075222722 1.2746505256915539 115 124 129
0.3986638524085610 0.0149004149275113 1.1898982911106908 58 79 122
-0.3432509087958663 0.1929400523645727 1.0069016356503957 152 148 145
0.1994789078873459 0.1456513832429438 1.2835316973563291 137 134 127
0.4067287125590884 -0.0319536941120421 1.1855866027679258 101 88 69
-0.2754553125769168 0.1151435221138025 1.1895542339860148 115 105 95
0.3279718514794376 0.1731314353506362 1.1437678759401939 158 162 163
-0.0548973660210865 0.2410201767713596 1.1075901825920318 33 49 65
-0.3550644488788641 -0.1491259508476005 1.3138328555325158 58 63 82
0.1514065168761346 -0.0308264954046927 1.3042991500739451 199 205 193
0.1149700003684339 0.0290135268142506 1.2871623672937125 70 68 55
-0.2417293064260706 0.0554546803813192 1.2109966500226164 142 135 129
-0.2207963420640567 0.2458591747376933 1.1784715900634797 93 108 127
0.1462010199087292 0.1557634822303944 1.2660564591538015 88 86 89
-0.3191945758227989 -0.0814222855867569 1.1286304838933006 172 176 179
-0.1929135317979284 0.0599676512278096 1.3895611468970315 43 72 102
0.2646887958501506 0.1767471907054947 1.2929463012051818 0 23 30
0.0003450259437517 -0.0901018133340859 1.2519895196689430 69 64 58
0.0062426464655318 0.0480276334999927 1.2268170023595921 161 154 135
-0.1688528196707134 0.0680353808234062 1.2230306859656259 171 177 165
0.1189286619935726 0.0450287231314765 1.2812649547761243 155 144 124
-0.2663435082922078 0.0709833829775193 1.2041787234594461 136 127 110
-0.1915070459120031 -0.0479420851101019 1.2441563917528990 53 56 61
-0.3086421032682728 0.0539539540458956 1.0675020623189986 164 169 165
-0.1089560142777098 0.0784792076602450 1.2319565883092554 77 67 66
-0.0520594992751550 0.2501729312133331 1.0622084134986562 33 51 63
0.0316429281989827 -0.2445447509992643 1.4123510128275834 254 253 255
0.0882174818405592 -0.1967462359465741 1.4400236462375406 58 75 83
0.3199896339566067 0.0461343484022715 1.1717786568485735 157 160 149
-0.4392701837909756 -0.1867045225371491 1.3914323456931932 254 254 252
0.4299001805219377 0.0475825277773475 1.1816314951439262 109 90 84
0.2270440677455801 0.0703347912901787 1.2976195669676136 155 143 131
0.3201991695081330 0.0631627374326880 1.1689583534159569 155 156 150
-0.2766971559905611 0.1860477122146157 1.1813994897422757 58 74 89
0.1922727624341260 0.1020657772795353 1.2818819618706341 72 91 108
0.3738062139232450 -0.0690294972695416 1.2005197957003706 153 169 158
-0.1086325126044703 0.0127740669021529 1.2441107772493458 92 78 69
0.2295432737170010 0.1628283730624185 1.2816656790028769 129 125 124
0.0345811998206791 -0.2369114180277087 1.4060904778707002 52 63 81
0.3775281205765595 0.0445986453111464 1.1704787782802855 159 150 135
0.2734754263749604 0.1991737581124885 1.2799045211419426 115 125 127
0.2341331455986992 0.0752549948721676 1.2972147107706544 141 142 128
-0.0743639313762124 -0.1978457463550937 1.3876927500541518 50 59 76
-0.3950614914303212 -0.2435478750016106 1.1612328860095587 156 166 219
-0.1152416501647931 0.0687434525231079 1.2323102279540208 123 118 112
-0.3117299832624708 -0.0037503693436068 1.0947675292279859 83 82 90
0.2935778252502190 0.0514304998927837 1.3065950235563604 63 55 66
0.1296590151466681 0.1063831296686193 1.2667406185453987 124 131 137
0.2965029668068193 0.1310256948971146 1.2658940585196652 58 63 56
0.1385853301232850 -0.0238149745408675 1.2942269677505900 105 122 140
-0.3755921029904998 0.2118633578828563 0.9970996029719507 149 138 136
0.3250471636678928 -0.0743483874926946 1.2401490372571546 64 76 92
-0.1990679486217763 0.0894710910065230 1.2103326464085009 90 102 126
0.1543637122707636 0.2198875998396548 1.2542892077597934 108 108 106
0.3044499734709281 0.1367239070010110 1.2312769777845871 111 115 116
0.3027123320851668 0.2535384206406393 1.2302883192887151 86 104 124
0.3124997167753212 -0.0676192503369031 1.2417998885967378 104 96 83
0.1261901988575485 0.1495093782212743 1.2627222816193782 138 137 133
0.2090887049533306 -0.0903193885710034 1.3736236328253699 31 54 72
0.2404995452885520 -0.0083275099689445 1.3091401692723934 72 64 45
0.2908308832192635 0.2450793455265083 1.2751132710602473 97 110 118
0.4047275744015364 0.0176846363645950 1.1885289529577092 67 67 103
0.3197570916091949 0.1205994768610185 1.1624682741976988 142 145 138
0.3177317215665562 0.0119455798412141 1.1848536433518684 129 115 115
-0.2446995459160272 0.1936109934403090 1.1838069310297066 56 56 54
-0.2346051034028550 0.0754393355344256 1.2081020865572432 132 126 112
0.3519410045618227 0.0944313414241396 1.1586000288430842 109 91 77
0.2499685717827495 -0.0718144292470772 1.3297882711483404 97 90 82
-0.4079680734368513 0.0026322071745092 1.0311796993780253 153 155 167
-0.3216713827909213 0.1237156827007255 1.1833728079699792 93 88 94
-0.3260849888843644 0.1505358458696366 1.0187052370548213 79 70 73
-0.3684255986636228 -0.2372678317952926 1.3555892065565323 123 127 139
-0.0208001427428011 0.1303518652926974 1.2054083557371855 141 133 120
0.3361448011436076 0.1505732496690216 1.1445667577140755 74 70 58
-0.3503558877756582 0.1815473981861811 1.0082093007499699 177 179 165
0.2956940017230821 0.2051219293023926 1.2688496339449926 106 120 123
-0.3266240209269276 -0.0012799206332484 1.0477602299447664 110 109 125
-0.1088015205884128 0.1856146308227328 1.2117068292423372 104 104 102
0.2936146231712041 0.1749538640371003 1.2825782570066435 51 55 67
0.3663244033661011 0.1065993665589913 1.1549020335774365 152 145 127
0.1989263893173611 -0.2003046772757600 1.4592314259819676 241 255 255
-0.2313233576241059 0.0768858337787897 1.2083823339937863 78 78 102
-0.1811748720124166 0.2200099612273188 1.1920121156886616 54 52 57
0.3510458296006811 -0.0213046098357903 1.1803169897811532 138 104 92
-0.1845407028231642 0.1891855458393929 1.1971934373245230 91 88 95
0.2227838818930649 0.0673193896744883 1.2976656817801651 79 70 73
-0.2651907377452689 -0.1973398360988414 1.3688534455585961 60 74 103
-0.3504355073884154 0.1780893591119052 1.0095929984543233 71 64 48
-0.0233372329472843 0.1941936373800273 1.2031886700822223 148 139 98
0.2022756455446311 0.0193020811450577 1.3026930457704322 148 140 129
-0.1852311409038201 0.0596538359744131 1.2218994820574187 86 81 77
-0.4626542261692605 0.1782535204929939 0.9879792967272264 77 95 109
-0.4132214063560855 0.0646786152905064 1.0208971738410066 110 83 66
0.4500519010319775 0.0771688942223794 1.1807643399105103 64 63 69
-0.3822020287256734 0.0394248697686390 1.0378529156916638 95 128 163
0.2046599296963570 0.0007161529681324 1.3056581428040404 142 130 118
-0.2219823064138300 0.0225034614901121 1.2197141825878393 90 99 106
-0.0265920531464609 0.2446531823885904 1.0540155772831696 41 61 72
0.4716327641886389 0.1212762832278270 1.1753984967245370 80 74 74
-0.2368262493565043 -0.0706429148999009 1.2407218795324235 119 109 100
-0.2613474891298299 0.2040710900356703 1.1783694252287751 53 55 52
0.3249544642527296 -0.0794340098817234 1.2471410217493606 123 124 128
-0.2447778419193725 0.2102749516980141 1.1810682416961984 70 78 81
0.4582753944961755 0.1754520231009281 1.1588171746948932 106 109 114
0.3355416747290623 -0.1597836198893799 1.5409561007774419 121 89 164
-0.1439535093666132 0.0334706042684247 1.2444286276219303 93 117 155
-0.4228875454528502 0.0672713964421437 1.0173700556173775 131 111 100
0.4735738079386720 -0.0069152416815462 1.1999444114943696 129 142 150
0.0936303858128758 -0.0731472980402575 1.3057102203390718 146 155 154
0.2830764111293995 0.0024118279932693 1.3092606940151890 59 54 48
-0.3504039681551249 -0.1851288450851191 1.3298085321675317 185 194 203
-0.4193883466183931 0.1336095012713509 1.0056755949361067 79 67 43
-0.2393645020598831 0.0647197941951064 1.2098909155121302 142 143 129
-0.3678346602862092 0.0837695487263879 1.0218577285131907 154 146 123
-0.1104375323986774 -0.2159327294811605 1.3725689121575113 155 149 151
-0.0224579588963228 -0.0783957532614485 1.2533765920755480 61 68 76
-0.0881468751655314 0.2516488150708584 1.0908368899911780 23 35 57
0.3774193637399076 0.1759311632113124 1.0212901752811987 19 37 61
-0.0182400449568679 0.2384822389822633 1.0942289023346519 39 60 77
0.2145131942684081 0.2302517613991812 1.2643339920782237 68 59 64
0.2919608049603388 0.0657464692931884 1.3083443844956337 153 158 161
-0.3306174965284833 0.0781041876294518 1.1852775104912463 88 90 102
-0.0291364827818729 -0.2115914409699077 1.3900559579858063 62 76 102
-0.4220030840014597 0.1358616505990383 1.0032298950468528 157 157 145
-0.3652100817294914 0.1863758842838195 1.0065891514228813 52 62 89
-0.3111493816102373 0.1137617800098270 1.0721009677971536 86 77 72
-0.0665328977406902 -0.2095858277016932 1.3813751685307065 94 102 151
0.3767303906882952 -0.2092964461390595 1.4624291454066474 149 149 149
-0.1613492103228381 -0.0785138281668276 1.2521274740503163 130 116 105
-0.2423194626907305 0.2304484382462934 1.1754773885086691 103 112 121
-0.0732490234763593 -0.2190588987013636 1.3981209142615996 255 255 255
-0.0607236004216975 -0.1924803378323701 1.3691975323462691 62 71 100
0.3289929185528532 0.1551648521749510 1.1402342756339638 138 138 130
-0.3271278110188240 -0.0083488145588307 1.2003167358684026 118 104 101
-0.4130644239041202 0.1730530541428523 0.9972698607568535 136 120 120
0.2050496085308645 0.0779126970079957 1.2913566035889414 141 134 124
-0.3184985871360231 0.1872425543919902 1.1717200372278025 136 147 153
0.1168838408277224 0.0097441074470723 1.2827072584338637 140 129 111
0.1109260180079326 -0.0112465826913827 1.2833250767673670 155 155 131
-0.0392545582736053 -0.0230401909651817 1.2236205684254748 154 138 123
0.0644043524649607 0.0918997875511443 1.2273482809283869 160 169 176
-0.3197355872555553 0.1204269502810697 1.1107871667471181 64 69 72
-0.0435665492703576 -0.0943442835534963 1.2531704891392745 146 103 96
0.0355879573467068 0.2378887109700003 1.1649932996959238 43 55 79
0.1424813447178131 0.0040620762597098 1.2951699290932757 107 85 74
0.1227813708994501 0.0759841469775101 1.2754970733735225 128 135 128
0.0411279416279142 -0.0977936472208639 0.8964352503876597 152 157 176
-0.0333667693893609 -0.2402478935160842 1.4190396615560243 42 57 76
0.1262275075161420 0.2025582227944413 1.2527620418997232 124 123 119
0.0135529282889593 -0.0106884110397705 1.2393062953661429 163 155 144
0.3347793592254932 -0.1872878288833356 1.4603722175525193 255 252 250
-0.0308113681296749 -0.2834023132887725 1.4518310784153472 251 252 255
-0.2875879047787850 -0.2380106990694405 1.3829166256092269 64 56 142
0.3770119402205714 0.0785911416046572 1.1643670730394975 158 150 131
-0.0316121072974783 -0.2087572584413194 1.3844909872079600 137 154 172
0.2964464049760476 0.0010973685392251 1.3054924864477604 125 120 116
-0.1647958883368343 -0.1840969116877003 1.3763782758080625 104 123 156
-0.0918284485613378 0.1287515174514080 1.1959388630696384 144 139 133
0.4093439439596107 0.2084578299198336 1.1532892769064733 9 25 15
0.3136607317949560 -0.0428381871608715 1.2333235921013803 35 45 72
-0.1968824929606124 -0.0222466845159671 1.2279424720033889 176 162 153
0.1243649948471747 -0.0177040689604757 1.2871631169600761 170 160 133
0.3652426835351343 0.1001213354460346 1.1555497944476287 69 63 49
-0.0535296707604592 -0.2876497840614536 1.4253826396522145 59 61 84
0.4492638720416081 0.1498177522277646 1.1653789341966672 87 62 84
-0.3217090815425367 0.0240383848290972 1.1411089424989851 121 126 122
-0.3498383050177881 0.1351127979964404 1.0178085556552621 145 137 116
0.1570952381924767 0.2069131584371234 1.2571311717927149 112 111 109
-0.0012767363123401 0.1305126820973891 0.9213618511216248 79 94 115
-0.1571948143291262 -0.0216438917909282 1.2371121661588405 78 66 54
0.3818342315106834 0.0790445640223965 1.1643542554000781 42 57 62
-0.3943044868090758 0.0597105512904792 1.0195072982107771 137 135 122
0.3710238782335561 -0.0749065303096555 1.2079036196827326 40 53 70
-0.0706753406459432 0.0527207198376445 1.2127223389485706 119 109 97
0.3404043007483083 0.0382801418665386 1.1659114354202520 93 72 89
-0.3274612424230114 0.1282111952227935 1.0239922041095633 80 69 63
0.2720676479718253 -0.0595919989215202 1.3349551180099462 128 113 106
-0.0596051462385966 0.2496163828172834 1.0778458399998099 38 51 60
-0.4149885005084857 0.0203337511921240 1.0279193898068537 80 71 74
-0.1786090749296372 0.0349890160371366 1.2263787016323155 114 96 94
0.3634561832407829 0.0671034162984401 1.1638150697894569 82 64 60
0.3075074228847436 0.0409389937296636 1.2342840732601574 134 132 120
-0.1017433698279925 -0.1648241069582523 1.3640985093809042 138 143 147
-0.3550090039744778 -0.1350491667885607 1.3110544479667159 114 123 140
0.3127151041076326 0.0897184902242538 1.1808067221785312 140 138 151
0.0689277719206297 -0.0236275903315226 1.2471285348073442 152 136 111
0.3763257938251386 -0.0599603001598370 1.1932042950648170 151 155 141
0.2957081459625199 0.1631946040982635 1.2781375515704840 110 114 115
-0.3109980352990434 -0.0259421604636425 1.2042429414323437 90 86 83
0.2042195623972375 -0.2142857116648075 1.4696674355356625 97 90 123
0.0980174740205906 0.1663038816173270 1.2587995002587287 75 86 104
-0.0424212801328353 0.2361184986371658 0.9997507985187528 51 60 89
-0.2904967777594593 -0.0893042898045169 1.2309366549529517 113 104 107
0.3179674218510682 0.2153020886422740 1.1501672738756767 117 129 129
-0.4350916230139119 0.2054789121911945 0.9864135419316429 153 142 136
-0.3203816007789241 0.0266644794651541 1.0435932815373781 73 57 68
0.2962325160830452 0.1386835680673839 1.2837399889301355 105 105 107
0.0399388157156248 -0.2314279880843279 1.4296015606239452 81 91 101
-0.4041014074875666 -0.1753720630878053 1.2949950348346893 200 194 196
-0.3101990390528864 0.0030552647375723 1.0782269692445619 172 178 174
-0.3209598563468072 0.0593680486618619 1.1275628043273751 84 78 88
-0.1077426998795593 -0.2417360498300999 1.3754492451471634 154 154 156
-0.0796333770050408 -0.0256464442560835 1.2255729330075409 132 125 115
-0.2934752737367017 0.1196933992970875 1.1863661843656534 134 123 127
-0.8031572724518123 0.0177842715039148 1.6463635880839866 99 97 98
-0.2539202536816172 0.0940398418734081 1.1977352148824647 135 132 127
0.0383018757607467 -0.0860461070714079 1.2953206899136727 146 176 202
-0.0103869446874063 0.2078313322525676 0.8243666017345722 255 255 236
-0.4357055700647699 0.1058074583785905 1.0070231026371563 94 80 77
-0.0929339839538151 0.2508510816552362 1.1651597882441727 94 113 145
-0.3007736724027131 -0.0546132434478407 1.0557484369067742 149 144 125
0.1086145459291910 -0.0127212514820470 1.2850018531337126 76 59 41
-0.0026483076284236 0.2295789067732311 1.1544489857740978 111 121 133
-0.3303470596416075 0.2053284038359397 1.1590954469930546 62 59 78
0.1362406635487238 -0.0117370461957220 1.2893368308043360 98 83 64
0.0582723472659975 0.1045330537277813 0.7322980993531966 114 132 146
0.1779466179993705 -0.0107579533662233 1.2976623071410107 88 71 53
0.0050984855110483 -0.2170530884713240 1.4214815239035328 255 255 255
0.0033971279236697 -0.0221671938039039 1.2333471756056587 111 87 75
0.1156561926980683 0.0987537515431139 1.2725740056898505 63 66 73
0.0649240437256450 0.1567429940358429 1.2506614141207641 98 93 100
0.0341663302464540 -0.1070039593352698 1.3138831701631712 150 179 213
0.1195671021318641 -0.1038464064855064 1.3576175047780217 27 47 56
-0.0272962775897415 0.2277537360588787 1.1514846669345495 46 66 101
-0.4110484768506967 0.0181295215051895 1.0286963990029043 94 82 96
-0.3495668754463260 0.1522428719758902 1.0145031331756911 152 143 112
-0.0607710820818761 0.0485653228318949 1.2035863111542280 135 133 136
-0.3264801878694305 0.0720440801042841 1.0347352325176489 137 113 101
0.1336599650746564 0.2410771785769183 1.2100007969169106 27 35 38
-0.0117570306289017 -0.1050880656242064 1.2508674988904136 98 96 97
-0.3096975788943451 0.2139284037737404 1.0617797809426059 47 49 62
-0.2263810163636586 0.2063732774872911 1.2040734415982373 32 47 76
0.3411908099399891 -0.1043043422866964 1.2471112114666079 116 109 153
0.2129972300440293 -0.1754552669033390 1.4494501189413054 141 169 180
0.3573763758618564 -0.2145398549150879 1.4683973519410203 82 84 105
0.0118937590077669 -0.0783060791320671 1.2530214724072004 132 125 133
0.0945309728812499 -0.0131147144026086 1.2819371034057823 68 60 41
-0.3226492983131863 -0.0949964216731169 1.1432562239881199 150 151 155
-0.3808554085642155 0.2002243447343980 0.9928731884905583 112 111 107
0.2125846997448089 -0.0901064486584045 1.3737130995906124 56 72 98
0.4736662886394660 -0.0367425821388106 1.1945778546152772 99 102 107
0.0527590260931417 -0.0217005069798598 1.2814079598227253 100 87 68
0.3008109414333323 0.1383529496541283 1.2356256129484939 115 120 126
-0.2475126574781384 0.1795352672191960 0.9860153166613859 167 190 198
0.2677545106744099 0.0337698852801230 1.3132510741479440 86 88 85
-0.1933065267927075 0.0312656369486832 1.2275639452061333 148 150 136
-0.4263859832413238 0.0163887119903760 1.0343754910952128 157 143 140
-0.3511729744086694 0.0095852663657267 1.0415566753673149 82 74 71
-0.3426292961813397 0.0881686818850220 1.0284365593780700 80 59 42
0.0275769569925368 -0.2040789948656381 1.4083199708155933 119 108 124
0.3340804396575791 -0.0384702054885986 1.1711517792558352 161 148 129
-0.4050690075501511 -0.2029262884947379 1.3032738916616280 122 96 167
-0.4139316026278166 0.0033572032742434 1.0303598241710852 113 114 135
0.0217625138439170 0.1459792481439695 1.2093945015034611 101 91 89
0.0063387421842593 0.0541405471960655 1.2255540063578967 161 154 138
0.5202580830006420 0.3021745683145879 1.3339859461194985 71 68 85
0.0213015422137264 0.1789286965277698 1.2019073961238134 90 91 86
0.1249401051307700 -0.1952513230087098 1.4470263428437755 55 68 77
-0.1596153755717835 0.2531708257076117 1.1405680922925279 101 113 135
0.3067695636160312 -0.0791819009334443 1.2594529910326671 161 168 176
0.3813932503268981 0.0083664825913269 1.1779780938484172 107 90 74
0.4577271045861100 0.1158943363922523 1.1746375694366695 95 82 91
0.3384928095727151 0.0224271191647349 1.1668987279282217 145 144 142
-0.2623720357517520 0.0571803813587674 1.2081304813478040 117 112 116
-0.4392724865847780 0.1605716869891123 0.9954573157775495 152 149 114
-0.3054405938298012 0.0169361162502143 1.0345449069357000 150 163 171
-0.3407593931483887 0.0981760433858503 1.0261798191758169 127 99 88
0.3747076569924988 -0.1847375371232158 1.2853971861884348 104 82 164
0.2802858988748149 0.1557150122416142 1.2909931116821420 129 128 136
-0.3185540953022921 -0.0045894239165092 1.1299718491537272 164 169 163
-0.2716203178356563 -0.1171904054339921 1.2887960432455170 89 99 126
0.2806680218744006 -0.1640122585873937 1.4370021003621041 147 137 206
0.3863444568557455 0.2419544567913657 1.1343605741746698 46 46 70
-0.3956979953400376 0.1257071388221443 1.0181553285142380 22 39 57
0.1498843214284846 0.1701701401445343 1.2637408375367665 123 123 111
0.1765633306670154 0.2197927073828316 1.2606923668064902 52 42 51
0.2911354429018002 0.0157790159598981 1.3183661903673882 128 132 117
0.1944216434493184 -0.0270440701048631 1.3110610525709125 157 161 162
-0.3631346617472467 0.0602952478763047 1.0251815821110011 135 131 120
-0.2002387794845691 0.0355539291816285 1.2226475950629994 66 78 100
-0.3506339929275606 0.1381041471046717 1.0175510796200087 88 71 53
0.2103489283903129 -0.1903028217933506 1.4696580546554519 78 84 98
-0.3232473615144084 -0.0949872664117034 1.0819306539659836 116 138 175
0.3370705670479662 0.1122745973616489 1.1512978904356468 58 52 52
0.0385897529853660 -0.2145809127162266 1.4001548433748887 160 158 163
-0.3582600606283520 -0.0683344894972042 1.0400086740472949 117 139 150
0.3775703812442964 -0.0328727549005002 1.1805638554591806 114 90 66
0.4545689806942668 0.1062548981240913 1.1761884336120163 54 59 52
0.3201253425216615 0.1085962490467880 1.1484659947091787 81 77 74
0.3373473455852820 -0.1433918482309840 1.4414142399385625 42 60 96
-0.3350567153045545 0.1731666374651880 1.0136108936628991 86 75 79
0.2922130680360894 0.2385701455439873 1.2755498066757793 108 117 122
-0.4398721272891221 0.1502904232797988 0.9980737732170236 154 156 135
-0.5552512915683235 0.2337333820470282 1.0656625658766912 153 54 121
-0.2311333444365361 -0.0276806131280936 1.2211930763712349 150 137 129
0.2829076817213834 0.1427684335171459 1.2935429068057611 55 57 69
0.3674049654690312 0.1225597338101091 1.1551828986461989 144 133 111
-0.1085189825613403 -0.1729657881066594 1.3654869675202868 145 152 160
0.0091883829171907 -0.1658263725809523 1.3608021085060089 139 163 199
0.4578815044479994 0.1703752328609636 1.1636173609999549 63 58 39
-0.0467910734372939 -0.0808775179046144 1.2725236351344689 32 48 71
0.3188983031853953 -0.0533197999925911 1.2304483371114363 96 96 124
0.1219333080241082 0.1774199911997133 1.2596567448164491 106 110 113
-0.0285234881218836 -0.0233239805773545 1.2265334000402470 116 109 99
0.3647520977755086 0.1101711594426602 1.1530687561444806 113 88 68
-0.4458592337930060 -0.0957706340518353 1.0547383152932557 116 136 147
-0.3074241782325663 0.1793245135306727 1.0341273256923738 99 79 88
-0.0127259658957852 0.2384927191824020 1.0949245641202963 29 48 63
-0.3485068441856384 0.0783279323206874 1.0294623025516534 102 86 86
-0.4440107320480375 0.1383468806951953 0.9989730791113015 149 143 129
0.0703296045387574 0.2715049195428373 1.1644613219776458 52 72 79
0.3065772463111916 0.1914451692383386 1.2157809489880640 70 63 70
-0.3958611549451630 -0.2115111885790376 1.2045957426684895 128 138 174
0.3356738999426315 -0.1487530807381112 1.4489073843270823 140 148 159
0.0356757562442998 -0.2161328026711259 1.4006838703630102 101 98 119
-0.3247717664197517 0.0367162490514617 1.1996770446591658 79 74 78
-0.1479143645537928 -0.1979042433163504 1.3920514860190436 183 177 189
-0.2938389584621690 -0.0453335638408632 1.2301076820571590 140 146 160
0.0020630025604192 0.1655986468344025 0.9552713966250941 106 107 112
-0.1067985361747385 -0.2081965341588277 1.3700567749573955 135 144 161
0.1140005429229931 0.1482464766421481 1.2615788634061529 75 75 85
-0.3192080570134395 0.0711750556407890 1.1187807696338077 128 126 140
-0.1684343254534680 0.0560003833834788 1.2256173585465637 92 80 94
0.4275081623245577 0.1494880045281765 1.1622979481003191 94 88 90
-0.1368689325245960 0.0336882251986564 1.2447901845765845 50 71 100
0.3356416714382094 0.0811045724911967 1.1549826261221909 83 85 84
-0.2985647368892202 0.2424150595024730 1.0197389895593008 39 58 73
0.0895703090431141 -0.1820422931350340 1.4290161283181613 39 58 91
0.2106309356320725 -0.1942563333311823 1.4619572974272048 27 45 69
0.2545222941432629 -0.0764697898802240 1.3337301275341489 133 131 116
0.1635432526583203 -0.0105981101785880 1.2942708701554855 76 71 49
-0.1618501054574419 -0.0490108786551851 1.2557951480263299 76 87 107
0.3095693073726816 0.2448577761581335 1.1760144582795524 99 106 125
-0.2424426646872177 0.0058915821826964 1.2238659601217341 132 129 112
0.1283013067210334 0.1146279406096365 1.2706613404796046 126 120 106
-0.3263749189247756 0.0427934669219046 1.1973221143517612 111 100 94
-0.2450249495148283 0.0746991093863113 1.2068151552187767 60 59 55
0.2351362489568759 -0.0310002793695554 1.3214378373736684 149 147 148
0.0310401085608509 -0.2205777094510007 1.4797319125593533 161 166 159
0.4438600874007406 0.1213529160458319 1.1692068596389884 58 54 55
0.0360324630690193 -0.1713753609383057 1.3909095746690738 85 83 86
0.1532924535336257 0.1293002471044385 1.2688724638947322 151 151 153
-0.3665382142877550 0.2162492964103012 0.9964076223831557 80 61 89
0.1292148676356998 0.1484784271665153 1.2631357072254434 91 78 87
0.2054332342718533 -0.0903150338634100 1.3712106964215622 38 54 69
0.4319573537672024 -0.1056929150719351 1.2427955876473997 140 171 163
0.2226333272217873 0.2117859009799682 1.2695631226093040 115 114 109
0.3213459629272872 -0.0567797559790364 1.2250821435755685 249 252 233
0.0400419765348720 -0.0801781178560701 1.2918030134469767 141 172 200
-0.2612610051541792 0.0650251561221006 1.2061686607023527 141 135 119
0.1379509661946375 0.0673967085615736 1.2812006776786409 98 82 83
0.4536157945016112 0.1036434056026157 1.1768347971206272 99 81 71
0.3068362099234740 0.0727924135755144 1.2408903146570840 85 74 78
0.0332968938710264 -0.2199858578893599 1.4568446826991044 185 184 180
0.2018869084002697 -0.2335608006784242 1.4731875888095196 248 255 255
0.2233888028081263 0.0786753004750984 1.2955474070817126 156 158 157
-0.2455211718278827 0.1790143591823417 1.1873895800852989 145 149 150
0.2928705780454345 0.0130386899909990 1.2982760650448517 129 126 133
0.3190709879877200 -0.0045030332057024 1.1911467179515820 255 253 203
0.1930522904056873 -0.0028333223141504 1.2019574064593153 100 85 78
0.1946977646971625 -0.0094616158833531 1.2987351831227638 131 116 97
-0.0684705101519949 -0.0557322368725165 1.2509474206457787 55 66 96
-0.4106294258639235 0.1360958676466004 1.0061219797941727 117 89 86
-0.1687213714216348 0.0217838509138528 1.2320407625655279 129 119 128
-0.3695567383489564 0.1806060248331764 1.0063961613759784 52 60 63
-0.3510930626832490 -0.0075333809812089 1.0453532380224166 112 109 116
-0.2251156754177497 0.0511322511632755 1.2246067139294485 113 130 156
0.3773167190543300 -0.1988781785209572 1.2961517635930733 106 88 198
-0.0048123765709144 0.0247659027132571 1.2333797113597449 63 78 109
-0.4139847423231906 0.1489324958364385 1.0027085651291683 122 100 113
0.3872525637080084 0.1871334421791228 1.1524212686238142 58 59 63
-0.0545995315627430 -0.2866218268377844 1.4292711134296578 71 72 136
0.0234408086511989 -0.2335522088908766 1.4202797804398846 255 253 246
0.1141168415774156 0.0980124772372506 1.2693703471918716 58 63 82
-0.4107754207399794 0.1257382570725734 1.0083605834476681 79 63 76
0.0462480985869387 0.0919225192165002 0.7306784705855890 160 158 146
0.3033506853345091 0.0288487786477780 1.2572753249503370 101 105 91
-0.2535265882503853 0.2093397805671224 1.1803294954567471 65 66 71
0.3045950580834287 0.2707440579321569 1.2177282140535108 95 103 124
-0.1629683981243738 0.0942685127447934 1.2161629874331541 58 67 76
0.1066040660965623 -0.0568770301129186 1.3083020627574795 67 84 102
0.1149786334659000 -0.1010767877020309 1.3611536786581155 18 47 65
-0.1849723406479221 0.0213484608753679 1.2295496097522236 87 80 70
0.3628645095869024 0.0530850229468149 1.1684764212401246 74 70 67
0.3472421276199329 -0.0155489649577528 1.1781805386158122 84 67 59
-0.3062926385110789 0.1457735063743160 1.0401219317668990 110 90 91
0.4351161832547565 0.0569187040751023 1.1808759026571192 62 61 57
0.1594204959185588 -0.0102889160830981 1.2924930836506230 154 137 117
0.3045171152600405 0.0694030733727471 1.2509036463853849 127 128 122
-0.3363083225766221 0.1333190290550859 1.0119794101782358 146 126 99
-0.2821444168080007 -0.0466757354808593 1.2280766317790752 67 88 119
0.0540835079535946 0.0725257552731434 1.0973197547905935 125 161 193
0.1753812436656300 -0.0490838994078409 1.3101518409074933 92 119 164
0.2222689401308632 0.0809626543391416 1.2948169272961543 155 164 147
0.4572332467668730 0.0290365810514596 1.1903793589187077 104 94 93
-0.3265539094306200 0.0313796882504618 1.0413793868869856 115 104 118
-0.3265446077181501 0.0720354639098643 1.0345327526978243 137 113 101
0.4352026224501067 0.0317191843034607 1.1854416786075090 68 64 63
0.1513838898406573 -0.0310440097418950 1.3038310362924450 191 190 188
0.3094584390675871 -0.0217632426777660 1.2229960545162342 114 92 81
0.4208569069707257 0.0106491238365478 1.1858431407415460 100 90 89
0.4363288453495581 0.1721758449156229 1.1588292186319396 64 61 54
0.1823537098259470 -0.0704712185370532 1.3174985780213719 165 164 160
-0.0712294731763810 0.2487072464716756 1.0928200324180073 29 50 67
-0.1963648885690282 0.0283721366858918 1.2243153860941069 147 136 132
-0.3532355458491813 -0.0401986908910549 1.0490903042311379 144 147 126
0.0037980897867081 -0.0457976108510687 1.2454410088802683 116 110 114
-0.3347278160660124 0.1007799863964774 1.0262000144515124 93 74 70
0.3472694211180986 0.1296019731410598 1.1503592817706405 140 122 108
-0.2420061924935261 0.0068897826993241 1.2202063188152976 138 138 136
0.3044405309770176 0.0378189877433785 1.2499882755486629 134 130 119
-0.3364164549992175 0.0153552107238527 1.0338602357179947 194 185 186
-0.1405568414584976 0.0038688028981467 1.2390461707699365 101 85 70
-0.0039800051507980 0.2298785456968668 1.1437593490095872 42 50 69
-0.3057956716620701 0.1894218294122229 1.0320729637164132 82 66 77
0.2350931639692953 -0.0121572914785062 1.3065636665951881 139 124 105
0.0305728015700873 -0.2192362825244238 1.4670519141803511 159 154 160
0.4316890603513878 0.1196951991331807 1.1688774893820497 56 54 57
0.0848523876536718 -0.1918632949799315 1.4365049021185829 107 124 154
-0.3160945520240233 -0.0807751589607640 1.0747305396527256 97 122 163
-0.3521572284976197 -0.1457580242219299 1.1077033837465462 124 139 172
0.0103057900170142 0.2420280239218263 1.1114238855322518 23 40 50
-0.4028492206604309 -0.1699599493296527 1.2857863692955878 107 118 148
0.2236534091338537 0.1970828909467572 1.2727551716570258 107 109 108
0.1860413537637629 0.2263153253009239 1.2720150752177131 70 60 48
0.1240338124831399 -0.2001599471686880 1.4470253363834940 232 255 255
-0.3534276775694243 -0.0086532802452481 1.0441095974036441 156 152 125
0.4564996128431044 0.1280432421550276 1.1703486106420078 130 120 93
0.3047500427648810 0.1287858649958771 1.2360253264188246 111 104 98
0.2580229382413064 0.1357901266185216 1.2886146797679392 75 73 76
0.1328231438946929 -0.1820441638916855 1.4368082209305899 57 69 95
-0.1771711190747846 0.2346319105900403 1.1405296994573484 84 82 96
-0.0307435785137529 0.0894280753531668 1.2176056481932789 52 67 90
0.1471659081832627 0.0261853071385333 1.2904394827850061 142 138 127
-0.0453063402965963 -0.0022176052099184 1.2233866727658422 109 105 104
0.0208709802820740 0.1610728826252893 1.2058777137284571 84 85 80
0.1302144526664812 0.2081574312163335 1.2539641451287746 104 100 114
-0.4343724270897923 0.1837599046198025 0.9929329641949914 58 46 32
0.1671180436384069 -0.0532603830089725 1.3146831234768068 79 102 143
0.3352499422323794 -0.1269521221933193 1.3995542692160576 100 108 144
0.4713516658280595 0.2642683019630270 1.1423434305796087 56 61 65
0.3517806019776840 0.0681518943756280 1.1617210385455168 83 75 73
-0.1640314261270601 0.0503692305182530 1.2297461700049570 176 175 173
-0.1880047225010437 0.0548701534380354 1.2215056730185603 143 139 130
