ply
format ascii 1.0
element vertex 695
property double x
property double y
property double z
property uchar red
property uchar green
property uchar blue
end_header
-0.4396804108375292 0.0137506313204043 1.0237231104010032 146 154 141
-0.4243306946431299 0.1330505029171374 1.0030068760163202 131 110 83
0.1614621038158355 0.2345835321244821 1.2502797833877428 119 131 143
0.3662344585927829 -0.0151873877338759 1.1817095823035424 126 102 98
0.0984313231938488 0.1623136630770464 1.2623419609471325 94 106 130
0.0987672446210324 -0.0738404227092413 1.2998956706219242 179 180 174
-0.3243423600244147 0.1414889304578023 1.0203833634154553 99 79 72
0.1380858935216644 0.1695574594584737 1.2610172857305642 64 57 51
0.3598077920434113 0.0368942096908220 1.1769221098940972 142 132 120
0.3518065781972227 -0.1866389804370259 1.4621369402909694 75 68 84
-0.3833515461229022 -0.0572598444388327 1.0400489304687093 199 201 188
0.4192031147706081 0.1929352460766159 1.1526252185473707 131 124 116
-0.3195774589397917 0.0163937854787144 1.1303815622117401 75 73 86
-0.3346551629469439 0.1584849170630145 1.0157824644302536 91 66 59
-0.3544116543172609 -0.1820960603196872 1.3184052838327216 75 82 110
-0.1926409139539407 -0.0638154683233193 1.2457347215399204 44 57 66
-0.3630991916031048 -0.0563777784100203 1.0434409708847074 102 85 77
0.0826139140835741 0.0628885925899295 1.2824437687698726 65 80 83
-0.1769192477793224 0.0239780717560468 1.2292953916254887 95 80 73
-0.3628796069487479 -0.0342854334959996 1.0443181158292276 161 154 135
-0.3164625682291272 0.0887504245501594 1.1892471318112952 62 68 66
0.3637657248692960 0.1738406103207396 1.1441622104453113 70 54 38
0.2203330350988117 0.0700142166417694 1.2957227279316301 100 77 71
0.2071865720058819 0.0896196803182755 1.2894105211475959 69 71 58
-0.4061208720911326 0.0458698031956405 1.0229772491215263 140 143 126
-0.3607898686688472 0.0521681238273240 1.0298111640164584 142 139 134
-0.1005399998405393 -0.1574886050656267 1.3626207929047731 130 137 143
-0.0053680833220085 -0.1099339967347551 1.2525679941081278 150 139 119
0.4567791847944515 0.0727481457989578 1.1791043351268027 136 140 126
0.2135592679106850 -0.0940852447538258 1.3745766883245192 4 41 57
-0.3030290948342277 0.0641062856764213 1.0633067034917745 99 77 90
-0.3563236009945452 0.0463575719657262 1.0322046562122658 155 150 146
0.3638389340795813 0.1910780796166947 1.1408126898713142 87 77 68
-0.4069388325202807 -0.0753103618269512 1.0493779057641996 55 73 87
-0.3812322865417967 0.1225313303784918 1.0191058185543909 125 133 146
-0.4148977386699462 0.1224493356628178 1.0078317125135241 84 69 62
-0.1538637264995133 -0.2038954043910478 1.3938247610884278 103 106 115
-0.4396781675530477 -0.0234275307050166 1.0301304249453769 195 204 201
-0.3719985773950426 0.1315973949171818 1.0185497414590394 16 26 27
-0.4151475489580771 0.0036105880345669 1.0307776090499807 76 75 83
0.4571064022771461 0.1732993867686910 1.1615902747683993 123 117 105
0.4760534420322066 0.2253676125124812 1.1548727032629063 12 35 79
-0.3717018766023573 0.1469342633091300 1.0148294355903114 12 20 22
0.3610653756260466 -0.0418487790426568 1.1757709747770635 69 75 87
0.2868946006414410 0.1332852493461912 1.2931854063021080 105 109 108
0.3989388042837493 0.0317289724742025 1.1852371597215108 61 84 128
-0.0144191928248702 0.1437130338948757 1.2087333102705116 94 101 119
-0.3593763050487812 0.2185819530280281 1.0021077389164357 127 125 126
-0.0278756111325104 0.2056049610336858 1.1988241579323404 128 153 158
-0.2993276490605398 0.0105725939195378 1.2070412840064257 130 124 102
0.2857421379408858 0.0094188568077250 1.3183379724014237 71 60 66
-0.1052976151094674 -0.2075112377916658 1.3714103661319603 52 55 64
0.3883306309933752 -0.1983089305135577 1.2959425931933848 51 78 73
-0.2085926998081481 -0.1777004648508810 1.3616315289539251 92 106 135
0.1369880889512652 -0.1918174667210043 1.4478559652193732 78 82 107
-0.3215388538717371 0.0492729665885651 1.1350440547503431 164 166 163
-0.3681742628226837 0.2233616520304542 1.4839864747352667 78 90 102
-0.2767609873299455 -0.0251579136617037 1.2125210317343638 140 131 122
0.2904534441170855 -0.1876999786362467 1.4432444696533935 101 120 134
-0.0818802223263191 -0.2201002710316920 1.4020234608760185 218 245 255
-0.4572242988931344 -0.0264804869690138 1.0267172184947018 255 255 253
0.1146607106889370 0.1045521430688462 1.2655666027088139 149 158 157
0.3986665758011658 -0.1673688890572885 1.2776561397450916 126 144 146
0.3664409657200361 -0.1553349340317920 1.2628826487037892 132 140 176
-0.1757078540313806 0.2484058102161209 1.1379825733095812 58 75 93
-0.0717630963814753 -0.1434946475037434 1.3219777422197319 125 152 182
-0.3952339371084623 -0.2573872525266988 1.1634599765609963 137 159 196
0.3156476042319976 0.0749022181197274 1.1811183039452102 122 124 110
0.2226514069024666 0.0807142409468252 1.2939977233619395 148 144 132
-0.5895039755429468 0.2507678905088002 1.0621020714691500 37 44 50
0.0525042694222973 -0.0487578587783644 1.2655741519020298 143 169 202
-0.2134824673807091 0.0406312910323188 1.2280784893633581 50 76 101
0.1999204168184373 -0.1836427485526109 1.4518611966040587 94 105 133
0.2853088324238223 0.0892863672048085 1.3030002243851897 73 62 60
-0.5136185530894504 0.2452146957787126 1.0249630211949690 160 141 109
0.2796252606957467 -0.1524320345933572 1.4383432709877062 145 134 151
0.2055989780023275 0.2133319981211762 1.2647355513320233 108 108 100
-0.4598656073253841 -0.0101119593958830 1.0270641266591334 255 254 255
-0.3576031728820561 0.1313979354403006 1.0173495513019473 156 138 124
-0.1559697992276743 0.1194011244813363 1.2132537160828074 153 156 149
0.3093866738569599 0.1259986349675415 1.2206134008651843 111 108 101
-0.3218750959569925 0.0326042925237067 1.1384567710142612 162 163 165
-0.2851280973425935 0.0106761825570950 1.2081032930984945 129 127 114
0.1320009307368115 0.2741665264802595 1.1873992890297906 34 31 42
-0.1962489257824978 -0.0524068205626533 1.2396664454078965 153 157 158
0.0149970879597358 0.1665567864487606 1.2050658382005763 125 121 118
0.4530671241292947 0.0006756753876814 1.1959637384478490 111 94 87
0.2360028786877586 -0.1324466957621461 1.4156988941663933 133 151 173
-0.0327372417340469 0.0221772906900910 1.2382629638810159 76 86 78
-0.4642825738483132 -0.0694733311699292 1.0259436186930853 250 255 251
0.2225334511452617 0.1352614535932241 1.2834366691195371 72 63 54
-0.3094927397121093 0.0497186975356414 1.0312197203472702 192 206 219
0.0088229046655315 -0.1607955442767215 1.3939882896937785 148 175 204
-0.1841328062234575 0.1226848857344900 1.2091652890417242 60 58 46
0.0048714537429230 0.2324947435284933 1.1351825620438070 58 76 88
-0.0967629035077922 -0.1762938506628162 1.3653619345951300 33 45 69
-0.2462694644578173 0.1227701099718259 1.1964686023639535 77 66 62
0.0654885005130923 -0.0933424763997577 1.3448750528127684 134 143 174
-0.3502165899442703 0.0332220867119396 1.0365225846089561 159 169 160
-0.5628883159456145 0.2275706859825410 1.0679032063377596 60 71 133
0.4483533615488645 -0.0759152894398883 1.2238213517726308 129 156 149
0.4061295949527142 -0.0770578460955725 1.2107473806021594 69 73 76
0.0010645124945178 -0.0420900513979702 1.2435889356114200 139 136 129
-0.1897364657674584 0.1249300691225119 1.2032825498208226 171 177 175
0.0293011451910346 0.2082609990376967 1.1928870256066704 123 130 138
-0.1180643005155403 -0.0347450258860549 1.2509297981413616 12 47 67
-0.1403250120095621 -0.0328636615729473 1.2381676104978612 113 134 163
0.3574118368208387 -0.0329364804465673 1.1744294941977713 183 169 134
-0.0746305179229168 -0.1428594944836003 1.3211204031423545 76 95 127
-0.3571728228729575 0.0317264657790777 1.0355734346871257 154 152 140
0.3091331618955033 -0.0103435175116577 1.2171674447398340 105 98 92
-0.0263408767776265 -0.0235100642973778 1.2262553712405679 84 68 52
0.3316118892844654 0.1537153943649996 1.1389454145984201 116 118 107
0.3675275451201215 0.1780143379086858 1.1439999373091552 66 55 37
-0.0012723599350725 0.2103643425284571 1.1998798210329775 86 75 71
-0.3069223479438595 0.0276351789827029 1.0630301721275632 135 110 113
-0.1082666659932935 -0.0008990494273121 1.2489709956791870 55 50 44
-0.3698517846976009 -0.0113313438270640 1.0428433248656246 114 141 171
0.1414383786518678 0.0071776089923427 1.2930209058825437 91 80 76
-0.3459286464537922 0.0064858858301395 1.0415808393941641 111 110 128
0.4378413496711683 0.0473639816274124 1.1806390836035312 177 172 152
0.0072344807923796 -0.0692490492118930 1.2532141316550978 143 140 131
0.3381915578612475 0.0669877018893105 1.1589923546916721 158 147 141
-0.0118797521757636 -0.0268913226131350 1.2274880399379327 156 150 134
-0.3264656545831252 0.0147188190822606 1.2023356717051530 111 101 102
0.2221205100610083 0.1606961328644864 1.2788885741136491 138 134 125
0.1299551205318146 0.2225516933745988 1.2495299941722826 57 55 60
0.2069521769019765 0.2279130590919751 1.2624079648413165 114 109 113
0.3562636428022825 -0.0211394621625110 1.1783816607482636 116 93 99
0.3518428304345543 0.0208689503865314 1.1707583683722180 169 167 155
-0.4246267495546429 -0.1502388841368254 1.0964360906094464 93 111 121
-0.3612114937530972 -0.0566215075538634 1.0433061525297362 153 146 127
-0.1688741307471669 0.1473531731578903 1.2073289282888042 152 151 159
0.1115383874231091 -0.0747081649226123 1.3005359798859375 134 122 106
0.1528972316183414 0.1946313138823408 1.2594185583149504 109 108 103
0.1257238511329542 0.1352103835412855 1.2656083332475065 143 153 155
-0.4108926420878766 -0.0435056838745350 1.0399537669769168 78 72 84
-0.4264840108175838 -0.0403672063166115 1.0366911690209897 58 65 75
-0.5047067035533225 0.2447512761755454 1.0457141767189970 129 105 81
0.2794371805670182 -0.1388642695370032 1.4386161022194042 124 127 168
-0.4394729025966509 0.1777833797899131 0.9916033746324929 158 147 117
-0.4030095747404578 -0.0033662687013123 1.0316299977413206 138 136 123
0.3686590519448251 -0.0414116066527197 1.1753187528568088 62 72 81
0.0425742423738266 -0.2385510191219465 1.4090650374926825 121 112 133
-0.1428027826017556 -0.2038677103271028 1.3975959275837628 110 113 120
0.3286897529564326 0.1216371317452957 1.1491675105871946 153 149 138
-0.3080570423352260 0.0152355835493350 1.2085626099476801 127 128 114
-0.3140957712577119 -0.0294722421942923 1.2051915761453109 166 163 156
0.3767541227432895 -0.1812410429470698 1.2831472631458143 111 113 161
0.0064984502396444 -0.0699619891766402 1.2582364469145326 168 169 173
-0.0124695615379147 -0.2055161100683184 1.3897456895264502 81 79 84
-0.2424105596107951 -0.0079918375881289 1.2222524981353040 145 139 143
0.1490832406921526 0.0979889350112815 1.2775573224764165 123 119 107
-0.1771012452124481 0.2263887030769865 1.1381389263597630 54 67 86
-0.0878496888965063 -0.1860265534114792 1.3680528495028601 57 64 83
0.3026925523545795 0.2534173813340065 1.2286771185240308 85 95 107
0.2762869089595650 -0.0162109898011324 1.3139228695997578 51 64 83
0.1377615378828543 0.1159403395165232 1.2710686419290385 83 76 60
0.3859101259430376 0.2578798595783346 1.1301998518357743 64 74 86
-0.3201368075180732 0.1015597861407138 1.1873952196697237 116 113 108
-0.3096780726840019 0.1033026431484328 1.0274232552665841 164 161 154
-0.2936274742261702 -0.0004309706933222 1.2090383135673757 72 64 51
0.1471349625464990 -0.0242380000822753 1.3018330817966299 150 181 212
0.4563083942523682 0.0714917941468615 1.1810795406624488 130 134 120
-0.0809036727490421 -0.0784461695234742 1.2622169936925307 146 170 198
0.3179132820403861 0.1013826906430580 1.1665366509539417 99 85 85
-0.1119728268769365 -0.1681840397840613 1.3577626038142057 101 124 158
0.3890212271601829 0.0034545450291930 1.1801197085060646 157 149 130
0.0354496948635478 0.2146385115882219 1.1977871223599399 72 71 79
-0.2822199109853120 -0.0714643690458849 1.2299400387780193 69 78 85
-0.3803408029539708 0.0989697371272470 1.0160213840873711 80 78 81
-0.1707973892922048 0.1122507333594538 1.2141949999844837 115 105 113
0.2101153339621623 0.1631824384084647 1.2759527293772435 69 57 59
0.2504504603709786 -0.1053617562756398 1.3970828717420047 128 160 181
-0.3272394728996753 -0.0373290081730931 1.0548417862601449 58 62 63
-0.0766288846563701 0.1184203299541724 1.1955883373632661 111 107 108
-0.3217019177375108 0.1860096904047981 1.0121979960446339 152 138 137
-0.2183382662915057 -0.1914486627089265 1.0823957212051776 75 91 127
0.1794696514051992 -0.1507331224828584 1.6005542775176000 39 51 73
-0.4264279550775065 -0.0125270651870143 1.0313937083411953 80 74 78
0.4744818045110146 -0.0510581752135537 1.2138963889511323 198 240 255
-0.0961052246509757 -0.1987732662126247 1.3785173401807462 31 53 66
-0.4317894245846421 -0.1229406885628339 1.0758008816328217 127 161 163
0.0732855858111176 0.1234105257634673 1.2527202553186121 158 162 161
-0.1053290495896500 -0.1917936414676763 1.3685557388054923 129 132 149
0.2043869464297276 -0.2003191805351249 1.4649752653873793 109 117 153
0.3663027799492488 -0.0014466756853715 1.1785884400372597 85 74 78
0.1529112455347826 0.2399534921223271 1.2230441891449797 94 106 122
0.3168028408326422 0.0087815161751401 1.1892661083894656 160 161 155
-0.0184401071861767 -0.1077057402688959 1.2511300088651698 149 143 121
-0.4140691900667690 -0.0516278539880533 1.0398485000289772 98 80 80
-0.1848144442838817 0.1095266432722298 1.2121462300043226 58 58 48
0.3445682075953976 0.1746330462950061 1.1399941909116593 66 67 62
-0.0586040743959923 -0.0427132502816220 1.2338139512334154 131 133 148
-0.3135198500500065 0.0277574786699241 1.2047114172555116 124 111 103
0.3029552808958702 -0.0752106550041382 1.2782653492484544 138 141 134
0.3637562406541475 0.1513765806761604 1.1474459186518342 91 81 80
-0.3132894437509972 0.0596384291586521 1.0900922220134202 82 97 118
-0.3825146848367048 -0.0324021528017334 1.0400311353568659 104 96 85
0.0279616380251757 -0.1117217459494049 1.3147041967230986 129 145 179
-0.4110457779564337 -0.0305772104222761 1.0374819774853008 75 71 72
0.4128382773050503 -0.0473763607012120 1.1969152127467333 83 92 107
-0.4118500771681411 0.0885120775771355 1.0137112648063678 109 95 86
-0.4109348300899213 -0.0091501506886769 1.0335473909122466 87 76 93
0.2137275481042486 -0.0890385982565830 1.3727432050829551 23 46 60
-0.3221149177512912 0.0453202105739861 1.0393930168982302 204 207 212
0.3378276775453003 -0.0027227662153903 1.1711587339006841 112 94 94
0.4260804315263252 0.0956439452213378 1.1705564322627851 136 128 105
0.3776634221629698 0.0354564339021954 1.1717723744291950 162 149 133
0.4168217764813204 -0.1221392644825509 1.2516016191351331 91 109 129
-0.0623280729048188 -0.0900206926528309 1.2716879861945662 49 72 103
0.2942019776587910 0.0419177985141890 1.3089992506365757 61 55 65
0.1922905335341388 0.0903294185464934 1.2842151111257867 55 64 71
-0.3504682266621194 0.1275183659500344 1.0190027309417522 85 79 65
-0.3386392777042875 0.0508001175236631 1.0357493588682345 90 81 82
-0.3062297631349291 -0.0034711027465640 1.2048557329539340 129 133 132
-0.4105022003482208 0.1591570118340677 1.0009564977769621 66 50 50
-0.1682943518057940 0.0714083145787918 1.2219552594271912 60 50 51
0.3701124573950763 -0.0577164502596041 1.1902786841731705 160 165 168
-0.3912973893908992 -0.2474936800557508 1.1567192948481306 232 253 254
-0.2924704649659808 0.1184386333099285 1.5270815484103974 118 114 113
0.0697860196664907 0.0304149098724649 1.2741165372922745 111 91 92
0.2140891849319556 0.2434093588809591 1.2112289453804692 71 68 75
-0.1582861788854997 0.0900518859427510 1.2193169287902463 127 133 121
0.0726459789092216 -0.0677239267134500 1.2988493690967766 74 86 108
-0.1628785568969442 0.0997267373085565 1.2160205380681632 90 78 64
-0.2956079270887406 0.1179123391221352 1.1865440085402341 62 60 48
-0.4267071312678920 0.1299476339599119 0.9954603246035361 154 133 112
-0.3217652535204081 0.0012235917448321 1.2062345085727793 120 106 103
-0.0745548931877417 -0.1219923209470483 1.3019472963111274 146 172 205
-0.4394302796673492 0.1499344085740743 0.9973753109787408 152 143 112
-0.0614840777995057 0.0488772874444557 1.2050216615258307 154 158 157
0.4534848973577474 0.0700764680970746 1.1813237686954019 61 62 57
-0.4041812335909838 -0.2354922575356489 1.3051534255932895 173 175 190
-0.3362784462650270 -0.0453996044219790 1.0544597346014180 122 101 100
-0.0810912071450321 -0.0784004205352811 1.2626254875778524 117 132 163
0.1055182315529455 0.0917438737744102 1.2599785699148045 56 69 88
-0.3472756347005081 0.0504870189941627 1.0344966984638497 118 117 123
0.0898581020633960 -0.0123690976182841 1.2788134812166276 147 136 130
-0.3278796006761057 0.2457670613071977 1.1548215013278433 91 93 108
0.3826758708965275 -0.1956169712124105 1.2953993980919540 89 100 122
-0.0799097662584572 -0.0109886740071507 1.2208372606213809 108 95 89
0.4112552910383491 0.1948696509054214 1.1530404552626363 104 117 125
-0.3081436024897353 0.1143168365996471 1.1838564236113951 116 118 115
-0.0404177023743786 0.0173270424508941 1.2231644446380154 92 78 67
-0.2633018253979179 -0.1161600790915164 1.2898823921938241 36 53 73
-0.4393767226321348 0.1665988267133956 0.9938188541287765 151 138 106
0.2859556109143180 0.0557027853410142 1.3108913811068641 92 78 77
-0.0316350099029524 -0.0314391108930694 1.2353241310256136 128 130 145
0.2235842346286008 0.0787207412735113 1.2945577830252588 156 158 157
0.1461140423331230 0.2220730666856551 1.2525762185335654 86 81 87
-0.0296860757449206 -0.0030705574216570 1.2280330044183034 103 98 95
-0.3089059983374175 -0.0507683068665123 1.2237401674132953 169 169 171
0.3686354912361646 -0.2137895718734949 1.4679856051705127 55 74 80
0.3517060378337362 0.1183787624011774 1.1522687793170066 84 70 67
0.2830294103095438 0.2317220981230686 1.2757029773401283 106 112 124
0.1340231278693000 -0.0903098439999625 1.3574342205064236 136 157 186
0.3855981262888218 0.0752090735948037 1.1679370529170781 50 53 60
-0.2850950412275104 0.0109651164188187 1.2108002090758103 170 169 165
-0.2864690798556015 -0.2303782058738051 1.3792158568431123 91 92 136
0.4016322930816043 0.1121269293007289 1.1609695260433237 113 100 94
0.3772181218444568 -0.2039197408910310 1.2985084452471203 255 253 254
0.2790148174210055 0.1151027204106810 1.2965913674083425 61 57 46
-0.3383885198321780 0.0888216567651814 1.0284879640796729 104 76 64
-0.0492924777374524 -0.0245217130296718 1.2225280356996240 131 117 108
-0.0411409909040289 -0.1040161028349419 1.2473501063955503 50 58 77
0.0189995007679063 0.2398196144188791 1.0999012162639525 22 39 49
0.2043374264673284 -0.2275883576251816 1.4712606766755005 71 80 109
0.2609660402412136 0.2286440570072321 1.2820421441320655 12 12 22
-0.3093053223544560 0.0449887601445077 1.0701286496337608 171 173 170
-0.0303224307875669 -0.1003333707141767 1.2493703959450482 102 95 87
-0.3054072692825997 0.0581473045623860 1.0315722910315894 76 97 114
-0.0696605108647423 -0.0239667721594888 1.2179592832494912 191 195 180
-0.4031783859159676 -0.0679727920406233 1.0356747582227812 51 72 93
0.0075906149110864 -0.0309266555288049 1.2369629385250427 55 68 85
-0.0977923610751638 0.1110464722308861 1.1974388546923094 142 139 134
0.3871453864214757 0.1713251498467625 1.1522710076798999 11 22 16
0.2802500288649713 0.1398857367856286 1.2931157455073932 117 111 113
-0.0701069305210816 0.2437174684776096 1.1218553982391199 50 66 102
0.1446218212022969 0.1282927429837394 1.2678349398595907 138 137 133
-0.1259314722210474 -0.0831515496149598 1.2608681792104011 135 129 105
-0.3509081807258522 0.0202014123328047 1.0394564917209410 119 117 122
-0.0534344169391210 -0.0265880989074471 1.2203593582086336 153 147 123
0.3781851879689613 0.2029438309313727 1.1403281370448648 120 116 104
-0.3035312382611557 0.0607583645353059 1.0575912933462044 65 73 94
0.4256929022481220 0.0062775747008227 1.1878954681200296 156 151 129
-0.2220236431247986 -0.2062485336141839 1.3826341937863644 58 74 90
-0.2613051103520233 0.1198758588657356 1.1958902819738033 60 56 45
-0.0929658738458571 0.2285793586078739 1.1723219199293935 111 127 160
0.3429436499957411 0.0201878697698336 1.1693912813045302 121 93 92
0.2770685125114404 -0.2140916236812635 1.4421478501301217 60 58 133
0.2674436148988100 0.2396167266219589 1.2794331929773812 91 103 119
0.3337977018259872 0.0276127088570992 1.1655115328097601 166 158 147
-0.3295279291660456 0.0002821931790706 1.2025421558253666 199 198 193
-0.4613202963759173 -0.0687437744913932 1.0293867271824921 100 117 133
-0.0270967556044117 0.1855447055602127 1.2022733569321733 91 80 76
0.2068217400112526 0.1819039712047552 1.2707730346213502 116 112 111
0.1286374885286610 0.0419488061719322 1.2835280572036527 150 142 131
-0.4177256224778795 -0.0453740141779371 1.0379259430308323 85 76 79
0.1175213316671483 -0.0704570028972969 1.2998577185028717 150 143 135
0.3709656668669929 0.0462223003108832 1.1690246198483316 158 156 135
0.3067558848059153 0.1307618676292284 1.2283482839122155 78 69 70
-0.2358566365186864 0.1483878828095908 1.1915284038383920 144 148 149
0.3954909431889693 0.1656383947310255 1.1510913612534135 131 129 168
-0.4438801133442130 0.1715853232425119 0.9904374480669321 197 194 179
0.3203808731835878 0.0938209718269678 1.1642867444167921 130 131 126
0.1587401069665873 -0.0544051886759823 1.3094792147321985 146 137 130
0.3110064480884486 -0.0247634386856174 1.2093721517789360 155 121 96
-0.1232456557811974 0.1414456819686040 1.2207570137534463 49 53 56
-0.1725527205673671 0.2195924739283300 1.1929187782409825 58 52 56
-0.2292149633567737 0.0936392659600467 1.2022989336777996 159 167 169
0.3923606795378233 0.0310825587520055 1.1870188706456093 38 67 99
-0.3945439689758336 -0.2437578752846686 1.1605434341844749 156 166 219
-0.0307850061987318 -0.1928425561032710 1.3757346079923773 47 61 87
0.2803605110936644 0.1757100635958861 1.2852026246539117 100 116 132
-0.1672110466583109 0.0158937835857409 1.2325102801967882 148 144 135
0.3995182313797404 0.0157255318653466 1.1883794092229873 55 71 97
0.3566747122363996 0.1544920155419706 1.1366242973900049 160 159 139
-0.4080592469302958 0.1035720932634943 1.0127735084285945 145 141 129
0.0583293650187047 -0.0420619318391659 1.2600770681181048 110 141 172
-0.1019775981995982 -0.1884901740451152 1.3696067952877966 180 189 198
-0.4378788492726445 0.0084703496864360 1.0229113023725906 149 163 164
0.0141834782346398 -0.0255823592775582 1.2327441314553125 153 142 120
0.4218407231453319 0.0721781866828637 1.1733552625785575 144 139 120
0.2736990338680593 -0.0106180057955556 1.3124428609483609 120 121 105
-0.4435073226281959 0.0192764169964923 1.0207963847808890 149 154 147
0.4209197971125112 -0.0830515428138886 1.2056692639970388 37 47 82
-0.0040268150368812 -0.2069901333149018 1.3910581585487096 33 41 77
0.2861453029742720 0.1913002499258168 1.2845649418064022 70 54 57
-0.0232067059213341 0.0355213045970815 1.2308719821381053 98 108 133
-0.3067581678447927 0.0424584032600171 1.0542071508041000 167 179 177
-0.3799649502139931 0.2101174688311416 0.9944337642488723 143 133 123
-0.1856673341946984 0.0651906753454566 1.2198210216724192 140 140 132
-0.1740822999374022 -0.1069356245948656 1.3050868306146810 43 50 68
0.1470576629202678 0.0757782581076750 1.2800352553017780 145 136 127
-0.3076141526236772 0.0979049250224609 1.0491997974426988 76 79 84
-0.1757282587618586 -0.0213808806712836 1.2305797641235510 182 178 167
-0.1132038301443337 0.1232422753054315 1.2218877895253655 75 68 58
-0.3237943579072237 -0.0488539520700549 1.0557827240518936 144 129 136
-0.1222786356014220 0.0835002905301203 1.2206329883670619 75 86 106
-0.3224117309982473 -0.0265260960759875 1.0518004367733835 73 61 61
-0.2729629056281830 0.0258911909904674 1.2100686486138057 167 168 162
-0.1994234142115277 0.0763191465594565 1.2152530369267711 55 71 87
-0.3853608016051666 0.1169096168962685 1.0193646013634023 58 64 90
0.2015154226509403 0.2810375706720501 1.2305449263198125 23 28 47
-0.1851766823703788 0.1664278375443053 1.2002823471419994 113 106 100
0.3067736623513040 0.1805217905708855 1.2174184112882460 67 55 59
-0.2731637929924083 -0.2078656344840434 1.3748990746172050 44 61 79
-0.2726102855449160 -0.1977543612642516 1.3659981931759744 84 109 139
-0.2676922285235698 0.0811455470716489 1.4993083573072257 54 76 115
-0.2854512849651153 -0.0424386987658174 1.2262299177289748 67 81 94
-0.1685337994661191 -0.0098892407242291 1.2363060659653033 182 178 167
0.0062695436903093 -0.1916461922268503 1.3765218807478079 29 42 48
-0.4354713752020924 -0.0639341563675877 1.0292487128479619 145 134 114
-0.1604868154034158 0.2310248049700170 1.1643366346967741 22 39 59
-0.2335021289647677 -0.0490535346630886 1.2352738447151537 130 122 120
-0.3546756249978347 -0.0610851635241585 1.0433308695020240 160 145 122
-0.3464554265814312 0.0226801452193498 1.0391020657931846 95 80 83
-0.3085203841237525 0.0576767465228158 1.0421196496528486 135 135 135
-0.1665625395543052 -0.0258997690565713 1.2272453132301855 139 132 113
-0.3549893469551680 -0.1513129529024366 1.1116646745427907 167 188 217
-0.3902483037909088 -0.2534523720140049 1.1634636660668201 205 168 237
-0.0399038140988958 -0.2799136163249070 1.4242645542055512 134 151 169
-0.3349574919213243 0.1160082176388688 1.0233146024928246 158 149 134
0.3200968139818519 0.1087182132982461 1.1487623849315445 78 79 84
-0.3203655633886707 0.1083331497670722 1.1206452457180258 150 149 145
-0.1451624330382624 0.0154935888859888 1.2350720509552851 146 140 128
-0.1686188963404681 0.2151537075237513 1.1940748748824868 121 130 137
-0.0035810253936760 0.1451544482486044 1.2158856602790040 71 91 116
-0.3247189958661241 0.1238055635644757 1.0238375865678386 78 67 61
-0.1698558428101272 0.1413224243586438 1.2072100364111737 79 67 69
-0.3194637609883193 0.1096297469475782 1.1122311523414561 65 66 71
-0.3611762970487262 0.0196921418585784 1.0356696552551583 168 163 160
-0.4400940934477336 0.0437478691630580 1.0162470661076815 142 143 129
-0.3231276540841260 0.1562236294621715 1.1781647423870372 52 52 64
-0.3193893053750951 0.0398229448931680 1.1258552617251707 117 106 112
-0.0774118127701262 -0.0273187829674553 1.2153392329564916 162 167 160
-0.4356329594455615 0.0467573446388240 1.0188146322676688 84 73 77
-0.3076614590706460 0.1600102868934717 1.0379378832741284 96 97 101
-0.4351838101670830 0.0519373433012423 1.0173721560600317 176 186 187
0.1259119431040931 0.0673842932644254 1.2803701087154225 143 131 115
-0.3964124479650848 0.0539844183126326 1.0236047069593046 64 70 86
-0.2464495579664020 0.0716401436850577 1.2064581450887006 113 107 111
-0.0642440463610103 0.0990359667679016 1.1943884503298758 88 76 62
-0.1676271660261166 0.0490887042669125 1.2269157636782382 143 145 132
-0.2396305668266422 -0.0751384364717729 1.2365729044811111 93 113 148
0.5362937015363244 0.0229118138305121 1.1730852640122555 209 234 255
-0.4097236492186804 0.1138772378921530 1.0097560545662583 150 138 114
-0.3725124398669295 0.1791069792934911 1.0102990212858336 16 21 24
0.2861834779874269 0.1572299310073546 1.2912333496999442 69 58 62
-0.0401552235625620 -0.2852810462224109 1.4356476678135122 66 73 101
-0.2439023640739666 0.1480864906533075 1.1920404777167730 109 111 98
-0.0414648329948389 -0.2471551443466214 1.4179762319147455 255 255 251
-0.1668908985069307 0.1502148745177958 1.2064162082628320 120 115 111
0.0985674143645674 0.2143529544425518 1.2520497339363521 94 127 158
-0.3395658976039214 -0.1174527260500469 1.0905189587773672 46 70 114
0.2862345247937777 0.2250013272875590 1.2784334881892407 63 48 55
-0.4406619167610847 -0.0055885414483716 1.0262770918681716 143 149 145
0.3460723370653609 -0.1084467981353899 1.2262737928991720 88 73 140
0.1314771417347687 0.1324569783261494 1.2653537510696304 74 78 77
0.3233441522872801 0.0726330454859493 1.1462828815869022 159 184 165
-0.3334332659645628 0.0245933734319658 1.0376079575589927 120 109 105
-0.3179735362166557 0.0521878197770714 1.1128058546555997 112 119 125
-0.4345936397304550 0.0290439439764203 1.0218235995207603 70 72 71
0.4296909849992118 0.0307329412977962 1.1840974665486630 120 95 91
0.2608961576608133 0.0415870829221710 1.3209009567053769 22 25 30
-0.3487270998886954 0.0908895737507954 1.0261965894686411 83 67 54
0.5417783599531106 0.0492361417981780 1.1596548151358941 54 52 159
-0.0355061771521475 -0.0333175158914651 1.2319847082647795 100 115 136
-0.3081389098900176 0.1302826583831990 1.0513269608212179 116 117 121
-0.4409868348558652 0.1299577565988736 1.0009467751242542 152 150 135
-0.2599339357024172 -0.0026196918922344 1.2161523999378376 151 147 144
-0.3215965604739050 0.1173596603290481 1.0277499014438520 185 181 178
0.4308707677237266 0.1668177693848311 1.1581623697882135 106 86 79
0.0812899311677445 -0.0479569667910280 1.2938809566414402 131 133 132
0.3992957693020847 0.0222827187133064 1.1861726826980405 56 85 115
0.1655076839804712 0.2259662171684074 1.2613126966068540 62 55 37
-0.0220488440170670 -0.2415627743921197 1.4285504396110387 230 251 254
0.1305444892500980 0.2605016251729817 1.1307470855722157 37 39 54
-0.2639169349304992 0.1404458700323747 1.1915671706178435 123 126 115
0.3923762852698838 0.0307923521973382 1.1854019376465579 61 89 111
-0.2856717793637276 -0.2086355937237466 1.3723861569985416 51 60 77
-0.3889615158129059 -0.0209126269930816 1.0376622310946777 153 148 128
-0.0333990879474713 0.1155519447288848 1.1950119423201466 171 173 162
-0.3714315966383022 -0.0208644480560838 1.0422345749276030 154 147 137
0.3820238594736899 -0.2323924311071285 1.3080609725643020 89 100 130
0.4381629656912019 -0.0359383873869460 1.1978297133025060 163 153 118
-0.3212761462067265 -0.0856413305705168 1.1456546708900617 124 129 133
0.2732873225957863 0.0083542949193442 1.3148858185384737 125 122 115
0.4195997987259875 0.0209972728949463 1.1841957087556667 143 135 122
-0.0244693706405284 0.0444012792334499 1.2326033307054873 58 77 109
0.3384468535194031 0.0558110683820074 1.1601589956831868 177 170 154
0.1843877103433796 -0.0606019742886636 1.3158386140928304 150 134 109
-0.3538613362310737 0.1746603353794050 1.0081384847407979 153 140 121
0.0698925743158286 0.0873868712155383 1.2637124311228691 163 167 153
-0.4577299158352997 0.1934759928081634 0.9840739137782140 74 90 115
0.1998668360350689 0.0449615600724964 1.2964386964023471 141 131 119
0.2039108043311614 0.1006546989669859 1.2883854213489012 124 115 108
0.1487576946203413 0.2707343022176472 1.1977379323683051 42 48 62
-0.4384096012708961 0.0111312011880425 1.0204367391225837 152 162 171
-0.3635513306674090 -0.0934470294223439 1.0618112789257454 151 150 148
0.3193257301917815 -0.0245803503414061 1.1769966869991761 255 254 253
-0.4156249756778103 -0.0113375744425344 1.0332425936647585 76 78 77
-0.3903609821556062 -0.0084769781218707 1.0440207602260572 50 61 93
-0.4358182374008605 0.0203714215098869 1.0228468210539552 90 81 84
-0.4148147870621097 0.0203698437433572 1.0274701837666724 80 71 74
-0.4251163445999304 0.0297482502241323 1.0236072683680388 143 139 130
-0.3351813936977180 0.0333679367548654 1.0389821841318598 146 140 124
0.1177451023033626 0.1280822666005884 1.2613566632520361 135 127 114
-0.0476629483136735 -0.2425771250777189 1.4104978439165365 232 234 231
-0.0584452115017447 -0.2790527340554920 1.4262845250240614 255 255 255
0.1995831122350100 0.0798495003151485 1.2882034725073634 134 127 117
-0.1053341531639181 -0.2031457230670077 1.3707199249818227 43 50 60
0.3284781432663128 -0.0864732806349312 1.2533292118793007 111 128 146
-0.1901883853130933 0.0827170260935549 1.2153878829692251 170 169 165
-0.4351952942579139 0.1224970062831292 1.0026042167071529 89 77 77
0.1998110941994077 0.1634700571995854 1.2735906860083082 117 110 102
0.3711222180608880 -0.0873331411861148 1.2070895336494256 255 255 198
-0.3148074984874986 -0.0453875018521435 1.2200653086974793 32 49 65
-0.3618649216444093 -0.0996988445009087 1.0679225282181468 122 124 136
-0.3261272837312308 0.2143246691204159 1.1637928527251282 45 43 48
0.2143445445054268 0.1737505158106998 1.2749407195905909 79 65 64
-0.0809552672032470 -0.1886371416665799 1.3608197881793278 97 102 132
0.4714542957218562 0.0701390754175326 1.1863457189026496 69 80 82
-0.4252363576407484 0.1475734322818514 1.0009033086767984 149 137 113
-0.3350364115541089 0.1505082910391710 1.0166393029433056 148 138 113
0.4830641086128155 -0.0385125242982293 1.1977165735440358 225 255 248
-0.3569577421421132 -0.0028766251584405 1.0425977909624609 146 144 132
0.3640763148507499 0.1711058821985101 1.1444560033256141 102 87 84
0.1669892024402585 -0.0455869473946201 1.3124412235912359 70 99 139
-0.1020555040568380 0.0427846068496485 1.2275228688725597 86 72 71
-0.1761649185707898 0.1406480119354230 1.2065271535707820 74 64 62
-0.1013535173029332 0.1596044410364852 1.2034707977860271 70 64 64
-0.0411590446261394 -0.2334172729130750 1.4318734473942765 158 157 171
0.0332091810501050 -0.2145771059908469 1.3989601013530089 150 151 153
0.1359826151290319 -0.0468287272538317 1.3063870353328519 39 55 78
0.3964805627415748 0.1794434541835650 1.1543902929252789 95 113 125
-0.2147559255450328 0.0249445261853916 1.2264209944982836 98 115 135
-0.1475346297496563 0.1443544149980329 1.2136388231050199 85 95 105
-0.4031047663859101 0.0312595422747701 1.0275994929348535 130 128 115
0.2824202183043898 -0.1903985688134456 1.4421443874914743 151 149 160
0.3505536042341681 -0.1911420069363711 1.4564444760593647 73 64 83
-0.4107129281384171 0.0013283588407526 1.0311952370761586 85 72 82
0.1863076131082522 -0.1862533506651229 1.4525651370487580 108 119 137
0.4010573244220165 -0.1633624462751539 1.2765012916998586 120 132 130
0.2805826761821705 -0.1725332341290552 1.4382671217909888 148 128 155
0.4117657307722949 -0.1442223134633675 1.2665535879657301 125 145 143
-0.4000912731365505 -0.2389640022737457 1.3000990872857410 106 107 164
-0.1845633159493922 0.2125811495985115 1.1921799830623934 51 53 48
0.2408548709027997 -0.0542930652118159 1.3243479599774484 59 56 49
0.2145256468062539 0.0887394665347115 1.2904798810865870 94 75 71
0.3278466065052805 0.1218952655329627 1.1475749795565799 132 131 127
0.2221260991257951 0.1607352202924480 1.2789332183535937 138 134 125
-0.0179520625105931 -0.1197677913978649 1.2557470555811190 73 68 62
-0.3133107937224353 0.1310460727220448 1.1813086158963022 141 140 146
-0.4392413771870244 -0.0080008712742458 1.0274968225875947 143 157 140
-0.2134743462927712 0.0578023866687244 1.2246553719938351 55 74 104
-0.4001385646329339 -0.2242347634094715 1.1521072981036888 84 104 102
0.4117409326364071 0.1651332376220169 1.1599915476830420 97 117 118
0.2119656025269740 0.1064765836731162 1.2776822293391108 58 64 78
0.3667385953885475 0.1343775612182719 1.1528142910250594 116 106 97
-0.3168976073678840 -0.0090269102513969 1.2063202911124034 189 188 186
-0.1993590143973798 -0.0662891160905724 1.2446668614711520 110 102 91
0.1665605537885819 -0.1416549404698845 1.4788737649387353 63 81 117
0.2940431280131042 0.1964819579893219 1.2804445078833271 10 21 43
0.3763444124266271 -0.0599186807080819 1.1924083141856046 151 155 141
0.0690478762575459 -0.0235630768392370 1.2464778476774894 152 136 111
-0.1148774346552447 0.0351434902526178 1.2395632670194867 128 117 111
0.1930967204957191 -0.0351764717586012 1.3126666345392140 147 144 135
-0.4590640028465772 0.0581346749063745 1.0100438280592519 127 143 156
-0.1150885090578291 0.0688004552209925 1.2317242533431301 123 118 112
0.2952110882016976 0.0623770208049451 1.2907335227108869 122 127 131
0.3058535905909490 0.0929206361422597 1.2381548567885248 119 125 125
-0.0484541498363321 -0.2968317752190936 1.4254786142132883 240 245 248
0.2874464955268660 0.1169686126720718 1.2940879791553292 58 51 45
0.1571941444770129 0.1455393416105745 1.2802657313647106 126 123 116
0.4187668234109396 0.1579903148674615 1.1583906541384927 135 129 103
0.1992954154316778 0.1991202930919026 1.2670742276279932 106 95 91
0.3174559059947749 0.0489214049321245 1.1936116836262267 135 132 123
-0.0875069464053546 0.2034160528340360 1.1763303553689588 111 119 121
-0.3177457692771843 -0.0706733679993991 1.1275605481594961 165 170 174
-0.2364379496129443 0.0636567099201387 1.2083809928539162 124 115 106
0.1289250919228540 0.0750740315412537 1.2768868438143404 145 137 124
0.2525140631248654 0.2187612084312993 1.2788626473947970 67 80 115
0.3481175484077244 -0.0633560841335540 1.1956083203001338 45 52 68
-0.0826719057500494 0.1106166889933237 1.1969168911379089 132 128 119
0.0988539205969066 0.0912200500640071 1.2801290410017550 65 76 96
-0.3918601846784093 -0.2243984944249101 1.1492129418959178 117 129 143
-0.3156728531442697 0.0521271990761520 1.0326745201420735 145 115 139
-0.4121027425283577 -0.1803322151233160 1.1163292464828971 116 136 143
0.4054341998341103 -0.1004256167911644 1.2018053932358204 132 129 120
0.0349508820001136 -0.2370439679686921 1.4078960654588151 46 52 64
0.1255016817997048 0.0506731844584423 1.2810448745683405 143 136 117
-0.0396998252348226 -0.2094524385231519 1.3858102233142549 159 156 177
-0.0005106983886425 0.1476681780258184 1.2140395597935816 51 71 69
0.2878343506865130 -0.2148793807582610 1.4459445717208790 45 67 65
0.3776320451494217 -0.1931833470448615 1.2910120508364029 59 44 125
0.3530716150915308 -0.1729309800217682 1.4197381586448248 39 51 77
-0.0133434068017012 -0.1199559511344164 1.2524539257531626 162 152 143
-0.1051623364193231 -0.0956087500599922 1.3103716722115950 90 100 127
-0.4497663288567664 -0.0590247309313018 1.0264729665353389 137 136 118
-0.0382489456270871 0.2551727558136008 1.3259235159082785 99 104 110
0.3134559666400855 -0.0442631296252152 1.1675498658568380 255 250 255
0.3859488701371204 -0.0451998778640150 1.1910008284030660 128 149 170
-0.1180586195804116 -0.0347187191333750 1.2509246579114868 12 47 67
0.0031301195222409 -0.0349546616899630 1.2416562171917735 72 78 94
-0.1094567772420609 -0.1810192112823561 1.3677279063720706 176 183 189
-0.0333175680938010 -0.0318181868870728 1.2237760226972874 60 82 93
0.3306862561499354 0.0803791249903975 1.1638273534175527 94 101 85
-0.2059322635902143 -0.0231089283342399 1.2254023442259887 74 64 52
0.3883076399068708 0.1473581573901782 1.1585638678814649 91 107 120
0.1506349852266674 -0.0235205157939066 1.3011952551472465 114 132 146
0.0679308550904455 -0.0192802541590524 1.2436552598311263 145 129 114
0.0654074528832265 0.2301367068530678 1.1983509483277162 132 139 157
0.3175157794928563 -0.0129883877068924 1.1937549864880055 200 166 139
-0.1343523579126623 0.2522387973854278 1.1945395703079786 43 49 73
0.2195536868930140 -0.0091596752155030 1.3041178782926088 75 63 47
-0.3541882938284733 0.0265567329562166 1.0357138636261627 118 109 94
0.2821300523766103 0.0217340242675385 1.3166586970376564 56 53 48
0.4365349918121705 0.0384014143809035 1.1837438362316581 162 146 130
0.1471600898992921 0.0427041662364480 1.2863994233638905 151 145 129
0.5359024634953921 0.0614536600461857 1.1654662708224242 210 230 255
-0.0442757491697502 0.2130188560642498 1.1652714191643512 21 34 40
0.3029362329075433 0.0662419271757163 1.2887841723258584 100 108 131
0.3656644703393480 0.0852316751841816 1.1566745916473105 135 133 120
-0.4602390889849677 -0.0510415783711715 1.0297227850691455 255 255 255
-0.4206344828505980 0.1250823791636104 1.0052824320877889 131 132 98
0.2417203864174747 0.0783024025548218 1.3000007089818113 25 30 36
-0.3420306745835757 0.1333421119031408 1.0194622486204361 66 52 51
-0.4196429109636444 0.1421537590777844 1.0040557324414108 63 61 38
-0.0281125908674393 0.2057684687096478 1.1990963378012784 127 136 131
0.3851590793371286 0.0179512268973398 1.1788232264294281 55 72 98
0.0072701483570467 -0.0472811774063295 1.2495208782070217 177 177 177
0.0292922653030624 0.2352985351917395 1.1699668885409074 42 54 70
0.0281848281892642 0.2431552295642104 1.0823447821748060 35 51 67
-0.3835222750360276 -0.1978081873297543 1.1365033117452192 36 53 99
-0.4135925443087758 -0.1752435206991137 1.1122629411121157 116 139 133
0.0280026870957407 -0.2395622736770938 1.4024774200721277 26 40 51
0.1996762536989792 -0.2292878208289791 1.4731490284319448 252 255 255
-0.1283932739590688 0.0158216535284304 1.2362339879995019 166 167 159
-0.1054495024636471 -0.1862341547462011 1.3680636793472618 74 76 89
-0.0253345256713664 0.1685270629240977 1.2034499150642817 94 83 77
0.3303538983221009 -0.1378041441624522 1.4991964672461051 255 254 255
-0.3809132640045243 -0.0693942126176557 1.0407253580892823 108 131 147
-0.0354849794737407 -0.0958937595493906 1.2462484059529035 91 80 62
-0.3125281851904175 -0.0672693278900049 1.0567276145504145 107 121 150
0.3799181115997393 -0.0765912374071605 1.1957956887958709 108 100 97
-0.4060839579184441 -0.0386362195184121 1.0344096061521968 155 154 152
-0.2324182920444711 -0.0365773057782566 1.2304459760058768 110 122 146
-0.4389249899011877 -0.0191513952500258 1.0298157317026939 142 147 125
0.3554764889213085 -0.0337116467993197 1.1765122679241087 114 94 67
-0.3095076080215509 0.2139565231930231 1.0615136156775729 68 78 87
0.4139351262253568 -0.0315847000582129 1.1859499595404293 111 96 77
0.4511614757116319 -0.0301606356257615 1.1928169172921745 103 85 63
-0.0642731979679967 -0.0030759033550452 1.2220353781782327 95 90 87
-0.0759264973388009 -0.0021835440221729 1.2171443955918246 115 101 90
0.3151181379562990 0.0133991567322610 1.1973811403754513 148 146 123
-0.3803941809025851 0.1699229803938227 1.0069753529182188 114 132 144
-0.0298697041777644 0.2033394489356614 1.1984011487310435 73 69 44
0.2675537213962313 -0.0420192986935961 1.3271215876636555 118 128 129
-0.2069617513996224 0.0952031702706614 1.2063017635535316 125 124 122
-0.3047999722102170 0.1113150061650255 1.1823988361443496 79 79 69
-0.4190620912650824 0.1470668194228176 1.0017514941671659 67 67 41
-0.3302629808936185 0.0136683642285218 1.0434347710166103 179 183 169
-0.4008255934320890 0.1913864204361488 0.9946091471040843 161 142 110
0.0120869131687779 0.2479684537084492 1.1389795653032777 23 40 50
-0.4364076030002317 -0.1217933320229036 1.0698501355538799 249 255 253
0.1316081051015213 0.1264301790784686 1.2690229446583068 160 170 169
-0.4259733165447990 0.2154619005596305 0.9898883908150067 160 149 131
0.3355160320211494 -0.1751060993310530 1.4586326190133423 98 86 158
-0.4064088076092668 -0.0753184275879266 1.0476716503723993 55 73 87
-0.0440909774630356 -0.0980575217058935 1.2475600573194858 255 255 223
-0.2060739261743680 -0.0915393354163622 1.2434520269735876 134 124 99
-0.2957843109809413 -0.0761567444783794 1.2265870904522767 124 112 90
0.3963710945705021 -0.0940439902875449 1.2006540619664945 156 153 144
-0.3499453356145579 0.1245995862626085 1.0191911282462807 114 98 98
0.0112275497570284 -0.0325889169467788 1.2338619368234849 113 124 142
0.4436080936408785 -0.0391507048281483 1.1908497406445548 78 86 97
0.3328874488762396 -0.0340881316016504 1.1719582914840552 113 91 67
-0.4389581443459943 0.0083074119137180 1.0239673098348927 152 165 147
0.3377724184248775 0.2217102354207138 1.1260389141494700 92 103 125
0.2059809644415440 0.0348289506003231 1.2996092992959860 100 85 80
0.3380917425094485 0.0384199272018714 1.1644904563162606 158 155 140
-0.4435658425963779 0.0571804579475594 1.0145920810180862 71 84 90
0.1666319746982151 -0.0097392431303601 1.2929730538712176 143 130 111
0.3354811739347209 0.0811151148611153 1.1537149300068370 83 85 84
-0.2527188376979921 0.2092864502721403 1.1789763687514072 60 64 75
-0.4391515834942184 0.1098149549665884 1.0047704938426347 141 143 121
0.1360992910858475 -0.0470564482244090 1.3061895128483449 52 66 103
-0.3550524396371962 -0.1770985538954458 1.3191841499030585 119 130 150
-0.4426455459367147 0.1365736177606268 0.9981469712371814 151 151 123
0.3958290019042880 0.0194446857159051 1.1822481507538407 102 111 168
-0.3497669055837063 0.1514638333202728 1.0136095361422182 151 142 111
0.4755175664163588 0.1089116591540311 1.1756437047266266 80 93 102
-0.2612774504151726 0.1752524864714492 1.1855306847876166 63 55 52
-0.1544741563297382 -0.2528161876466700 1.3465561671997557 239 255 255
0.2031474355001812 0.2053823405130017 1.2657940391606122 110 108 109
0.0653987548546044 -0.0933654783391859 1.3451504087697528 115 128 163
-0.0148975346194567 0.2047438504442615 1.2006376482907533 77 103 138
-0.1192111018167727 0.2246048468572556 1.2011744356356313 94 101 111
0.2846729716823748 -0.1357147526493604 1.4321032890070144 141 151 153
0.4059611424925808 -0.0827433905556949 1.2023845475358874 148 132 106
0.3716505510961095 -0.0785394287590766 1.1987812004124476 255 255 228
-0.4432387035606003 -0.0306160427389296 1.0296812789980025 151 157 145
0.3365627675919405 -0.0243719094833042 1.1757133867518761 168 150 110
0.2938090852020918 -0.0166448304785367 1.2812323440003697 117 115 102
-0.3204727143946037 0.0214266825659251 1.0427717234882501 87 68 70
-0.1067500720425547 -0.1019632647622863 1.3146574001558582 36 49 66
-0.0775009495703216 -0.0243426336784344 1.2166959458367395 191 194 183
0.3180052537201160 0.0163808225570717 1.1834290845005262 105 93 97
-0.2728645166976034 0.0258262075659542 1.2107982510458293 137 130 114
0.4318317216776459 0.0558166474033194 1.1793918482236503 94 79 72
0.3064518615896325 0.0819295110114172 1.2260250184675352 125 120 114
0.0782942422442520 -0.0321544361870439 1.2905932233430808 168 179 181
0.3677069270160854 0.1951343048937912 1.1397743153315101 89 71 71
0.3154294806536805 0.0899407330645442 1.1637834200938109 95 76 69
-0.0639971761216546 0.0926097884034831 1.1886920536055297 125 119 105
-0.3780233333994971 0.1174669366564834 1.0209298492818302 20 30 29
-0.4397609768303933 0.1326039241934139 1.0008957403863923 154 147 121
0.2825672730826157 0.1990418099516444 1.2821037608927526 110 110 118
0.2881753410441833 0.1990969571932020 1.2835861103105772 49 41 52
0.3744966477557746 -0.0949261983187350 1.1943005652071357 255 254 255
-0.0510198328483616 -0.0502892300429917 1.2361887072940958 53 57 60
0.0379478749033293 -0.1993188314120301 1.4335630728404800 76 84 103
-0.4073247293681324 -0.0280071052772973 1.0365289395917208 146 143 134
-0.2821661429607845 -0.0297774023375449 1.2099731526288700 136 125 105
-0.4070965598583773 -0.0121700929487639 1.0329815831728475 152 145 137
0.2793593915410051 0.0709603828701215 1.3061705911266774 122 122 124
0.3830084242799122 -0.0420959423864596 1.1819181210596981 115 124 155
0.3155040918850497 -0.0215828416034692 1.1946873485613774 255 255 241
0.1054083457988512 -0.0162158992170407 1.2820355820973812 135 123 101
0.1596260295666843 -0.0141305955259244 1.2922658649527452 135 120 99
0.2890058057687230 -0.0110563209865689 1.3099352323011790 106 108 95
0.0544816670938799 -0.0026602877216463 1.2444645548066720 156 149 133
-0.3070885471630396 0.0585415380094389 1.0584128835061579 165 177 177
0.3157291437670589 0.0161483704522493 1.1940709027309797 146 142 130
0.3151817415080006 0.0651074154859130 1.1821888356939003 134 132 133
-0.3588350802169853 0.0770444478648244 1.0220894207875433 147 133 120
-0.3055910103792550 0.1104400788545952 1.0389974225248897 160 169 166
-0.4554198918335191 0.0916897989803082 1.0081510183146578 94 86 73
0.5032560202898778 0.2815716166321271 1.2400672362662224 73 71 74
0.3066798027261300 0.1639107544867396 1.2205775026684100 72 66 70
0.2596895495555364 0.1726950504536350 1.2920154089451552 68 82 95
0.2234337138950400 0.2136214141266989 1.2683967348934293 109 105 104
-0.1432812042476289 0.0333554545006492 1.2425778211050091 49 68 100
-0.3223764690620789 -0.0910448703637643 1.0774210637468915 160 185 216
-0.0048328192506815 0.2028465385848299 1.2032549329287949 90 123 158
-0.3172515827156988 0.1761123256883554 1.0151923301249290 145 131 118
-0.3892899427028888 -0.2308237026475080 1.1603633478641910 238 254 253
-0.3655370035336812 -0.0712902035452882 1.0526726922986329 124 142 154
-0.3269050568167608 0.0003631748639216 1.2047310633370680 91 87 84
0.1245738566882802 -0.0986663612206147 1.3589239943859341 53 85 124
0.3343844808665463 -0.0900196239262532 1.2440609185769245 88 106 154
-0.4410086352922113 -0.0493864679138167 1.0342002045134409 135 136 122
-0.0892066918351980 -0.0458918885765297 1.2292718795593962 99 137 174
