ply
format ascii 1.0
element vertex 696
property double x
property double y
property double z
property uchar red
property uchar green
property uchar blue
end_header
0.4793182961787781 -0.0294658024759771 1.1975828094772718 48 62 65
0.2150453301476642 0.2480369861649176 1.2107240424515464 89 93 102
0.2063239282261429 0.0925597371088776 1.2869045758070601 131 133 132
-0.3137536874043642 0.1461849427334311 1.1788710224841346 143 151 153
0.3203624177457115 -0.0077163240971426 1.1692112958164180 255 255 246
0.2141979058032807 0.1885867008692988 1.2714922203180044 78 68 67
-0.3323532140497574 -0.0437305193746510 1.0527755184950411 139 138 143
-0.3059617274224603 -0.0036725167724991 1.2042990929929236 168 173 166
0.3869928976634568 -0.0448590119058746 1.1835385833324228 142 161 176
-0.2658915470155601 0.0044349792764669 1.2156778827243084 135 134 113
0.3664777214769802 0.0152444484442797 1.1744125172211566 113 104 99
0.3095735687598282 -0.0608870994605205 1.2491680824457154 255 245 197
-0.3712680459625460 0.1111248196356222 1.0203904137384521 41 45 57
-0.2294256545000415 0.4300043280449580 1.5951729940677333 156 162 158
-0.0897445089799564 0.0055769798513320 1.2150660706730338 151 145 131
0.5383351616236162 0.0596174952275679 1.1655483586648758 50 48 171
-0.4269339947679954 0.1078951610565869 1.0061279811776001 138 128 129
0.5398403529829338 0.0710356773069196 1.1663851666408807 62 56 164
0.3238114642331633 0.0836088372866289 1.1481297952320755 168 170 156
-0.4391314250265701 -0.0242430815878726 1.0296403483954679 188 199 195
0.2034271109167421 0.1877223539762162 1.2693592339495976 118 110 99
0.4324584942142883 0.1054783875068413 1.1716082007869508 48 52 51
0.2831715411718260 0.1592360884741604 1.2891406276292323 42 47 67
-0.4139779898450734 0.1629651199997678 0.9990029279555003 124 104 113
0.4135636283943401 -0.1469992247332687 1.2664877784678705 107 125 161
-0.1644218750275608 0.0742784399535203 1.2206840517063182 168 168 166
-0.3579912153988067 -0.1189082569091067 1.0619914588577120 43 55 81
-0.3519836391779960 0.1594354117136518 1.0088760403949635 151 148 141
0.0504248921522096 -0.0360791234329297 1.2543879897624246 32 57 79
-0.3780587125993816 0.2064324878697492 0.9969344003138325 86 83 90
-0.3507116081484025 0.0256292529376629 1.0377771923522148 70 70 62
-0.0256752853985544 0.2345128580450993 1.1085327465010708 52 63 83
-0.0312748642690886 -0.2090019251559837 1.3850686280818307 169 189 214
-0.3544989552754690 -0.1511179661486575 1.1095107956984962 137 164 185
-0.3850487048166102 -0.0119626763524373 1.0429202366543275 47 61 90
0.1417286951099345 0.5233522874616121 2.4860825857339983 5 31 48
0.2049868177744505 0.0283543754586329 1.2994774943008933 147 135 121
0.3954099309240398 -0.0066924694396606 1.1815582123462065 132 121 101
0.3754837796814470 -0.1994571134041348 1.2958834053739583 248 251 255
0.2515528897318097 0.0705616695380596 1.3089202293944453 89 111 132
0.2933748556939834 0.1052779536626234 1.3002286143539168 129 132 141
0.2021047429008277 -0.0899536591990306 1.3689112324589787 32 51 83
0.3556587464410065 0.0819487469214253 1.1509807440150446 92 91 89
0.3958153001380732 0.0860663529649787 1.1600815101868709 135 132 127
-0.3110626930842680 -0.0372403348525889 1.1051943136439804 86 94 107
0.3175403158257629 0.0275764748007453 1.1793447961070893 101 99 112
0.2972900769275288 0.0899753457281265 1.2850615626194599 47 54 64
-0.3070339718835172 0.1730357463271834 1.1857663537274075 48 66 86
-0.4118375036781733 0.0501993919097639 1.0165120166739845 157 165 178
-0.1892009940899528 -0.0369824490847878 1.2388624731719708 79 92 127
0.3197288664414578 0.0871221056571064 1.1522937186640245 94 81 73
0.1307309918383101 0.2078400031487934 1.2501811434394365 134 146 144
0.2055617188576580 0.1455906485416910 1.2773824616888358 120 117 112
0.2294625212392712 0.0621309331342564 1.2991424155342297 138 135 128
0.3489298503091927 0.1619938545668174 1.1405893184003935 136 131 112
-0.2330993633072838 -0.0853616677598520 1.2377093148752865 140 130 121
-0.0107304852213670 0.2007979958429417 1.2006492449423836 84 70 61
-0.4112951944717364 0.1826766445635671 0.9959155743307082 202 188 185
0.3384810812943244 0.0558232817961020 1.1603897546281026 146 147 133
-0.3631348623337253 -0.1227377274737520 1.0573516669360874 177 180 195
0.2959256226134752 0.0803483840967196 1.2870233231425889 114 117 122
0.2941631242271546 0.0680354569740068 1.3024178112961591 19 28 43
-0.2604680224048614 0.1034123067642940 1.1973036931261343 119 128 123
-0.1042564058962893 -0.0964595041954265 1.3095282060231712 72 89 115
0.2944441568593686 0.2244325930164529 1.2735592482772229 11 29 49
-0.5592023592055424 0.2551597836789581 1.0780912903762812 255 251 246
0.3674504259763358 0.0374349511899572 1.1669341230137267 163 148 127
0.3674773765017492 0.0700111135412534 1.1619269758919915 171 163 150
-0.3524492046521857 -0.1461130020101325 1.1080198378728954 128 152 190
0.0388695416977287 -0.2150165081119745 1.3999859789203843 176 183 189
-0.2607742923508858 0.1787550046950410 1.1838631079727417 103 106 95
-0.3985916039816221 0.1868347744770333 0.9924990086190578 151 146 127
0.1562622167532692 -0.0150588762558838 1.2994945251854679 166 154 138
0.1917194459923184 0.1512280500642289 1.2720812715152141 64 78 79
-0.0309590830228552 -0.2175331999026035 1.4079923693940724 151 158 176
-0.2847138114275684 0.1967482389575823 1.2097960286909488 231 249 233
-0.4088959001615124 -0.0728051805101368 1.0480102504175979 102 151 191
0.3681874589188244 0.1557789660632441 1.1458803176874104 136 127 112
-0.1299966768055339 -0.0106146131600364 1.2391809745292262 136 142 132
-0.2164656281450291 0.0316945806390456 1.2271069602192592 96 125 159
0.3455578156799198 0.1431509410901320 1.1440881107399157 114 98 101
-0.3109173685255747 0.0982778386031651 1.0862900197580840 108 107 105
-0.1191476450454708 -0.2022213859791446 1.3949481724498527 83 72 80
-0.4409151596331972 0.1414568099545103 0.9986044132134152 87 88 83
0.1297451231575166 0.2160367629848708 1.2500830127522047 94 86 97
0.4719004939414910 0.0615877912368757 1.1873431517188353 80 84 95
-0.3073929222111549 0.0537837637230430 1.0319634704974263 97 103 119
-0.3644718764416078 0.2194686213069941 0.9964203961720852 144 141 148
-0.4127165116409058 -0.0361569384166255 1.0339926897662230 155 151 142
0.4752808044128593 0.0930590215365405 1.1802961021392959 241 255 248
-0.4104222168374553 -0.0203417909977005 1.0352978896767029 155 155 145
-0.2445761186370869 0.1113073648451205 1.1978461230249771 76 78 91
-0.0560429859347747 0.0005867942324008 1.2220839327279605 106 100 86
-0.3502100851047950 0.1174680303766209 1.0204797906636502 150 153 134
-0.1977502333732372 -0.0713461100970963 1.2679016797465414 76 90 101
-0.4075163877092809 0.1375506840994161 1.0048238865763917 155 151 148
0.2961099822810009 0.1788299771546935 1.2753799829154560 108 118 127
0.0580488042903744 0.2448612002923051 1.1465240907702288 95 110 133
0.2523562514496909 0.2740229527837952 1.2670727841100471 55 65 92
0.2104720132921905 0.1304135854848201 1.2760551217584462 146 151 147
-0.0108324353745588 0.2110126596829046 1.2002309535500486 111 119 122
0.2818242016652298 0.0967386981118582 1.3011925669987481 119 124 127
-0.3542896604383038 0.1867380572133956 1.0040632380164691 133 137 146
-0.2413454139696594 0.0215398204030951 1.2163532646977266 150 143 133
0.0831162834975127 0.0277461472583968 1.2790605940477060 91 86 82
-0.1998508531765440 0.0888181076467590 1.2107141230904455 62 68 82
-0.0395423086167576 -0.2799385073696696 1.4232790088714760 134 151 169
0.4339220479900742 0.1015159810326424 1.1697436119949955 113 89 87
0.3821803421005038 -0.2068267957001598 1.2985238564659565 85 95 164
-0.1014277140528241 -0.1809027880686912 1.3694918426479690 127 144 162
0.3365145160640546 0.1210285873558195 1.1475013493027530 151 145 133
-0.1096464428812457 -0.1732045149268368 1.3642613559402359 169 179 189
-0.4031432463565949 -0.2016751331660921 1.3000758062081934 146 132 167
0.0497281608114407 -0.0206656820126917 1.2414467897962460 114 95 78
-0.2440201763566368 0.1070433814584102 1.1981807560461724 97 96 102
-0.3506886172423052 0.0256161796998259 1.0376922133346846 70 70 62
0.3491070338090950 0.1624016983309217 1.1403146827250006 156 161 139
-0.0048114664676001 -0.1097270428868497 1.2483375651631670 149 146 137
0.3963662628794364 -0.1029767123402980 1.2010189762128354 126 127 113
-0.0157054054580409 -0.0429496936781796 1.2475012378067691 109 147 184
0.5331651086974527 0.1307219300982977 1.1504928819039124 41 43 128
-0.4560376049138147 -0.0266913452568191 1.0312127453552058 128 146 146
-0.1668358769289973 0.1671027268228251 1.2029687329224963 112 114 111
0.4118270209576640 0.1798839446361888 1.1559556988335857 109 143 142
0.4715558885521053 -0.0167769028224042 1.2019257359703144 123 130 123
-0.4404704423173976 0.0108913741350315 1.0224688860277431 149 155 155
0.2860698818312327 -0.1461315022092358 1.4331299085489020 67 65 76
-0.3246494439103433 -0.0514400807803379 1.0554318160307483 169 146 114
0.0879439937035780 0.0707723369557060 1.2686993021363391 57 75 95
0.3697508733402530 0.0787771573500627 1.1619986489163507 154 154 156
0.3669470412344030 -0.1893362039383886 1.4622902970469267 79 74 80
-0.3665600868530480 0.2164326714611221 0.9932700380383337 70 89 96
0.1964180304955714 0.0017957722021413 1.3011370637375410 139 127 115
-0.4331195802873868 0.1962434117695200 0.9842874482139672 108 112 137
0.2771037755788890 -0.1746027489974579 1.4374065640253955 254 255 250
-0.4479150630915264 -0.2391053207833699 1.2938596676836924 180 179 187
-0.2111932023690520 0.2496717655003922 1.1806081599192200 35 43 62
-0.0259149322216187 0.2394245013315765 1.0799877303756491 38 55 73
0.4191006972868638 0.0986552187106193 1.1662275702775311 112 112 114
-0.3217652349398221 0.0558858493294224 1.1952120260820347 36 37 32
-0.0296701643546867 -0.2717727582959352 1.4295448986055717 44 57 99
-0.3625971239923247 0.2262413785677420 0.9966957647975637 146 156 168
-0.0327698086057274 -0.1050523542339271 1.2465043599433387 180 173 163
0.4377637759982284 0.1516205967058854 1.1608451427206012 153 158 138
-0.1043425908160902 -0.2388655121854731 1.3751853830750482 149 143 143
-0.2453629074763517 0.1956714525530405 1.1826592272093548 113 102 108
-0.0745011394815943 -0.0445598727548561 1.2317631417680364 82 105 139
-0.3125631841055816 -0.0037490054925573 1.2037206554687538 131 129 116
0.3863762337091944 0.0530926764691145 1.1767233352115047 65 89 123
0.1296190175605450 0.0231134717195606 1.2865579839970227 175 171 168
-0.0299961366728293 0.1466120591740425 1.2086783380219612 27 45 69
0.4307839383038133 0.1666189221797086 1.1571693091878783 105 91 91
-0.1040454909868663 -0.0962943766510338 1.3089706105750221 78 102 140
-0.0532196403796868 0.2066874600203871 1.1763638147259432 122 132 142
0.3438825173851075 -0.0382851391715377 1.1700646212543588 158 152 126
0.1377966817795840 0.0510605590713538 1.2824633790906856 98 77 72
-0.1521766644525495 0.0203731064331235 1.2303875019460324 85 88 93
-0.0046825038255435 0.2027438983015478 1.2023568160659057 100 142 180
0.4582774111755937 0.1253499080204534 1.1698025296715506 126 128 115
0.4593799302697822 0.0423701679889940 1.1902491223870104 136 131 112
-0.3204675280058533 0.1957616117164630 1.1678688402791939 99 115 131
0.2225536644004595 0.1944233796320244 1.2706801856013223 140 151 143
-0.3715744506811632 0.0487683447927838 1.0331791918349473 67 82 89
-0.3258347263237744 0.1965466595354858 1.1659765946308909 57 57 67
-0.1053195566104823 -0.2217957554759821 1.3736954228693548 56 52 66
0.0562025962768495 -0.1013782080411087 1.3418783667409084 88 127 170
-0.4071300380874038 0.1742282442580627 0.9973748020300688 156 141 122
0.4096747502667217 0.1513852829729335 1.1629314684984584 44 58 85
0.0779624458271361 0.0588409633490380 1.2674064250171642 162 160 147
0.3712624245940991 -0.0888153881499633 1.2010952643558142 255 255 218
-0.4070056741563498 -0.1812292284964017 1.1131027189697442 126 154 158
0.0604580774150902 0.0821945465571378 1.2317345474940591 139 152 158
0.0809709389450944 -0.0635860617777048 1.2940230832443291 105 97 84
-0.1457436253061621 0.2459816957586205 1.1876504464365207 92 110 132
-0.0115098621770202 -0.1048673373152062 1.2488907662280360 98 96 97
-0.0785808250967373 0.1217352338003405 1.1947190265688947 114 106 104
0.1302636644896002 0.1626747612331148 1.2598440249526548 129 117 117
-0.0122838676562976 -0.1024504657117955 1.2487647377710955 164 158 144
0.1677057404376769 0.2670230657262448 1.2564185914135961 33 36 53
-0.4035816102724659 -0.2131445451000787 1.3015024167385489 140 134 160
0.3082024526071550 -0.0208276590671137 1.2181217106557438 105 96 91
0.0009332436594729 -0.0499388485991607 1.2445289598264078 154 153 149
0.2724561793936732 -0.0218213056900077 1.3234551043300196 15 37 58
0.3090661027284980 -0.0308124770821217 1.2107828870196993 254 252 239
0.1752174257594108 -0.0706475102886266 1.3192214629446457 145 146 138
0.2829016411776110 0.0449179408576333 1.3116082031570035 138 132 136
0.1689751039919359 -0.0709341917347509 1.3122479174611219 178 178 166
-0.3244031235807707 0.2047152246681542 1.1658036984529925 83 82 88
0.1014235921043912 0.0094148342988316 1.2784380580126198 121 114 96
0.1448927726670640 0.0642318264137802 1.2831814025681558 96 85 91
-0.1851451082081701 0.0734744341070245 1.2180813323246265 64 55 50
0.4360266293089836 0.0923059932008754 1.1716060312321515 74 65 50
0.0152120597767095 0.2283711779748387 1.1911173040055683 101 123 144
0.3083187514593635 -0.0723465004585560 1.2494760453356342 105 101 100
0.3403445355172181 0.0072987248919182 1.1705001163110034 90 78 78
-0.2808411848296993 -0.0372224353480782 1.2138882272588323 111 124 140
0.3293265441100458 0.0746450128383530 1.1491713016115324 69 71 83
-0.2390914914911031 0.1468842138459230 1.1952336293466956 108 107 112
0.0708039581228550 0.1021915666849051 1.2548918880638973 73 83 85
-0.3903021610130466 -0.2081290643018660 1.1439687879313714 120 142 181
-0.3553688854178159 -0.0685598669597435 1.0476831295172033 159 177 201
-0.4245604305662400 -0.2175111600275656 1.2934966812856894 76 76 102
-0.1570579900186558 0.2272577672262804 1.1426388055350536 33 46 55
0.3480817394057521 0.1166998593283242 1.1507949946667548 78 67 61
0.0338807748849509 -0.1702780160663634 1.3898339812369063 123 123 133
0.2951243781874590 0.1179611272605206 1.2896043479319257 112 108 105
-0.3193982636609845 0.0658522121013870 1.1200349916634540 82 82 92
-0.1042647796561599 0.0493076097712166 1.2382841784310716 91 72 74
-0.1958762774589527 -0.0902381566094382 1.2638806001403720 51 67 103
0.3169501300141853 -0.0245034520311828 1.1929675464808494 255 255 227
-0.2946014333412585 -0.0905856342122078 1.2306746500071175 145 139 141
0.1773355882318353 0.1544626524940426 1.5914595284789361 60 61 56
-0.0008449234018990 0.2422315891133456 1.0768704057674143 66 81 104
0.3236193825096961 0.0737242518365974 1.1522651228730971 99 101 113
-0.1090919792726309 0.0984398729892135 1.2219917039389609 113 103 102
-0.1052503958087462 -0.1704432966678683 1.3635426126330066 56 59 68
0.4417832872944543 0.1442267080338694 1.1634108700568357 138 130 119
-0.2609474441474473 0.1064723273915562 1.1978823665657159 73 66 56
0.2828484024173864 0.0663481518801982 1.3067553100712255 125 112 119
-0.4113970132962423 0.0263120880064500 1.0261959206435716 193 196 201
-0.3202826245110260 -0.0371724553853028 1.0543333792351957 84 72 92
-0.1090402925739520 -0.1651952479797948 1.3626851989902722 136 149 165
-0.3015203441332725 0.2050114587578988 1.0157928300562933 58 70 86
-0.3234762943930197 0.1548680971809313 1.0175204552122208 82 64 62
0.2265971244595000 0.1548029926035894 1.2793773168897791 120 119 114
-0.3862664774989101 -0.2074204844267029 1.1431655116850272 114 142 181
-0.1604529448626159 0.1843433087222526 1.1985008893775313 138 143 147
0.3723716691824974 -0.0813156173705907 1.2083863027885233 132 130 117
-0.4224512449214014 0.0861414056022163 1.0126833907380235 103 79 75
0.2945393633865424 0.0938019382072676 1.2890327750000623 116 121 115
0.2831672293493919 0.2261251919944503 1.2770402740745732 31 33 54
-0.2263545171865394 -0.0125211653739227 1.2264639733355986 105 95 94
0.2325984890032181 -0.0274401981691162 1.3179211891446625 159 165 165
0.1379495606481210 0.0331816489884879 1.2861226344941648 118 103 98
-0.1586281065250536 -0.0365718805871920 1.2443977743972419 50 78 102
0.3263176415031410 0.0368885011511661 1.1680024285102626 154 159 163
0.3995982334724418 0.2374115706887369 1.1371996233057406 101 102 107
0.4255651291058333 0.0224397401138621 1.1841069645604401 156 153 134
-0.4059601687133468 0.1978981060289110 0.9936720923876763 76 76 78
-0.4376456555315834 -0.0245296151472872 1.0258177377376434 143 155 135
-0.0519037327982956 0.2458435367167291 1.0883202398982594 85 87 108
-0.4255030085208536 0.2151515035943314 0.9882555444207208 162 158 157
0.3754973860795803 0.1028033068732739 1.1564984934478137 149 150 132
0.3517267914500435 0.0590692718775398 1.1621419019777881 169 162 144
0.0990034301636521 -0.0739043214590132 1.2985335214424976 149 146 137
-0.3206856880949382 0.0847908773897929 1.1477085519694554 155 161 161
0.2930343789805940 0.0061304288148477 1.3131838218323322 23 42 38
-0.4107392027993191 0.1326708666120458 1.0055284848166985 166 154 138
0.0153844459263830 0.2424080340584541 1.0787307457658031 49 65 88
-0.0971790740375545 -0.0294359609770748 1.2111035944917745 162 155 136
-0.3576809174329455 0.1495039436974071 1.0130807091824150 132 117 96
-0.1629824451055991 -0.0036926210682624 1.2342023346664881 183 182 177
-0.4335680739802791 0.0767353511172749 1.0122535812284947 71 74 79
0.2876558434083924 0.1192539559525024 1.2963002852626968 62 56 56
-0.5065451239538249 0.2280508142813585 1.0358448308740618 250 240 181
-0.1449424660934258 0.1352025500831009 1.2112159941826908 141 134 128
0.1292633115886129 0.0699139185473817 1.2777144029432346 105 90 95
-0.0943602098827177 0.0024377116449272 1.2200724992774106 118 107 103
0.3672662894963290 0.1606010989394518 1.1465069427505239 108 94 91
0.1188368134831924 0.0863224284028308 1.2715046989522092 171 170 152
0.1869898439655453 0.0260318784179785 1.2948693846727735 150 143 125
-0.2606382914914637 0.1788227417210473 1.1831575006547688 133 146 137
0.4052632280598792 0.2035245785019176 1.1509358655047666 33 30 25
-0.4100539019549884 0.0286768623176731 1.0253879076919190 151 153 142
0.3799289662049437 -0.0477674752093950 1.1867988008619110 103 115 141
0.0411400830165798 -0.0273782138256003 1.2479007232548172 148 131 105
-0.5112668289953410 0.2205116778297698 1.0440131726289863 224 216 195
-0.1083657853413179 -0.2282886872944038 1.4233703471092711 201 197 194
-0.3501996951536849 0.0936193531844829 1.0250160502503280 52 50 35
-0.3201256861066702 0.0173335760949570 1.1340395542534909 141 138 145
-0.0456938315498790 0.2402233656462210 1.1021118073154372 41 63 77
-0.2308722641710514 0.0760184114262113 1.2071477143702787 85 94 109
-0.2151944563620782 -0.0854558025772768 1.2429108087729535 145 141 132
-0.3577670956729228 -0.1139123553546591 1.0637721901186696 122 121 103
-0.3505286438179748 0.1103628595136182 1.0216034873345627 56 56 44
0.2879001923436841 0.1482720140443262 1.2908694557141911 57 59 74
0.0073106917598258 0.0154081460949432 1.2319678054402656 104 100 91
0.3172694684290541 -0.0066300192361362 1.1849481762523195 146 103 86
0.2415295720340839 0.0387796997782939 1.3092016483054985 66 93 123
-0.1761533868361704 0.1594674048398413 1.2024058143263014 70 61 62
-0.3167756700379082 0.1419061128938000 1.0204290490191963 182 177 173
0.1474780231446792 0.1602356111351934 1.2630228947800828 122 121 116
-0.3207528632960571 0.0592400665286146 1.1264306209203698 84 78 88
-0.1074105266692377 -0.2416892199255493 1.3742673995045305 154 154 156
-0.0794227317410753 -0.0257094746597881 1.2242540808054978 132 125 115
0.3630649269352860 0.0063999134362586 1.1752922288534353 89 71 57
0.3383711918037421 0.0165596428152646 1.1677355853295626 176 169 161
0.1296302922934755 0.0637197988715311 1.2789892341870475 105 85 84
0.4265227339219626 0.0849177874030262 1.1676357378935500 75 79 82
0.3994063713811163 0.0650185807418359 1.1800772570708717 28 37 78
0.3625182168359605 0.0929872211731465 1.1578391770903764 147 139 120
0.1314071854417247 0.0347483478613417 1.2859548090353561 131 108 100
-0.3355608479603598 -0.0012365059504719 1.0451821616789474 191 196 200
-0.0249982168070164 0.1536197661268608 1.2072664422279455 83 97 124
0.2067047872762558 0.2081631851358110 1.2654520916129759 48 50 49
-0.3128269745677999 0.0619431071852022 1.1957251576999191 160 164 165
0.2058711358902421 -0.1875894317564772 1.4583029631859872 121 125 152
0.3546491978283012 0.1329297050724124 1.1490092388666922 155 137 133
0.1966342831607104 -0.1761663872820139 1.4451257086138991 97 114 132
0.1375886408544765 0.0955207918810553 1.2750345575379445 108 96 100
-0.1843780497125580 0.1785722416185848 1.1977996882585591 68 65 74
-0.4518753455983028 0.4010692511614021 2.0382267387579782 28 38 48
0.0037766947596775 -0.0758819006328908 1.2496972209852282 85 77 66
0.0145664848750616 0.2425210385824707 1.0789759498474971 36 48 60
0.1291553402220214 0.0532250130983542 1.2804946801954142 98 84 75
-0.2001655781960548 0.0189259216970414 1.2238013015743954 119 123 124
-0.0175354434738436 -0.0858248546631340 1.2458476958670543 160 154 140
-0.2977470632738931 -0.0542928984300582 1.0560316361139579 156 146 136
0.0825605590180481 -0.1863906325442616 1.4303408313177592 99 113 140
0.4414976652823564 0.0841179901829768 1.1522464995468369 104 107 112
-0.4023537921737477 -0.2328377624574911 1.3089817976848737 164 143 200
-0.1682762875897704 0.1281630434264550 1.2102498488644504 62 61 59
-0.3291489032694077 0.0345617919780101 1.0405292603102461 109 107 112
-0.3285355684353085 0.0265475068109560 1.0416501272688525 55 57 43
-0.1974662901002656 -0.0714935296211617 1.2677648671525925 73 80 99
-0.4295744706555309 0.1063495833248035 1.0076096139018478 65 60 66
0.2854614338700403 -0.1739793812667763 1.4385233241643685 81 75 89
-0.2201882452669889 0.0576811845961909 1.2232745637160387 52 73 104
-0.3617770017787105 -0.1080889726814863 1.0803038852922238 103 116 133
0.2231607835151748 0.0942685148660430 1.2897019416692768 156 157 149
0.1575904731059809 -0.0470448023813011 1.3083188169910951 146 147 139
-0.1689536914776501 -0.0098608495284836 1.2362652646014143 182 178 167
-0.3849422297535638 0.1066542379238141 1.0208026856703560 63 66 99
-0.3403207083242939 -0.0546565405065951 1.2200474555997500 129 156 185
-0.3509136670344111 -0.0243053524311465 1.0469798550896856 89 86 77
0.2245113390014924 0.1180257903438763 1.2857606255056886 121 115 99
-0.3347952451383009 -0.0020228050279432 1.0447829504656798 170 175 179
0.0909366352869092 0.1421742462446680 1.2542892502004916 128 122 108
-0.3105928411456455 0.0742793418074217 1.0919066131004507 149 157 159
0.3863287057766394 0.0369672504764533 1.1807674151987269 56 86 114
0.2977581171765415 0.0295331392031748 1.2925937781643995 64 57 73
-0.2617970847312368 0.1811929996098741 1.1826635740222371 111 113 112
-0.1125762461500114 -0.1078479467179443 1.3168501416941520 121 141 152
-0.3903901154258222 -0.2186964733919265 1.1669902574585436 130 142 182
0.2144683650619759 0.0242599589698461 1.3021423591200578 91 81 71
-0.0053840065908620 0.0623403298255344 1.2270720645392310 87 113 148
-0.1766230017937079 0.1076467284941191 1.2132355025121064 122 110 112
-0.0242257160272723 0.0240306876662168 1.2300722352879505 57 78 105
-0.1235475955722884 0.0215673815139553 1.2383093141820483 67 69 64
0.2263250650005623 0.0996937737302951 1.2897463302543886 136 133 124
-0.3276333062957254 0.0436084288595246 1.0359366466309561 115 109 113
-0.3573896182469325 0.1660599781975789 1.0099260128269256 144 127 117
0.1187580071735699 -0.0938223164798708 1.3553744932888601 60 76 101
0.3039426149068752 0.2409560721520451 1.2008558572417638 44 45 49
0.3816153424309639 0.0085089777894145 1.1777213620254232 107 90 74
-0.3048651712912522 0.1139792326254327 1.0623566650293566 104 90 90
-0.3299807290211164 0.1342669544425999 1.0192812358233498 172 169 154
0.4193957824988823 0.0079899792384583 1.1837605749831801 144 131 122
0.4363284853059459 0.0360719185860125 1.1833094058877949 166 164 152
-0.1535045731018012 -0.0580630152799738 1.2492661542856978 158 158 148
0.2854588979379199 -0.1756702501596574 1.4385136782833989 84 76 89
0.2063473581583075 0.1577016301529009 1.2752468598636928 92 90 95
-0.3137273650111318 -0.0294975409905392 1.2037737839340183 130 123 105
0.4248930506405066 -0.0446637470872111 1.1979149470282013 120 134 161
0.1527765253437136 0.2432141973053529 1.2443034402353341 135 132 141
0.0153205310211947 -0.1877043934440074 1.3927767101086574 93 100 119
0.4395679611371331 0.1057253689762684 1.1708286069316320 60 53 47
-0.2146613589041381 0.0570949722779486 1.3965828786937815 57 82 113
0.2233582087180511 -0.1804983792256317 1.4414109179683221 199 236 255
0.4579440490362939 0.0856775213853381 1.1734935540026943 104 109 115
-0.1683058639215216 0.2063191187701784 1.1952699452448825 92 89 100
-0.0214036371133438 -0.0923941786808908 1.2739697728708315 105 104 102
0.4537999256595701 0.0729551101496102 1.1787355664381620 101 93 90
0.1303242705970024 0.2251928060113582 1.2474352973651068 124 135 139
-0.1878018407556447 -0.1042825061997395 1.2997937512272491 30 51 68
0.3925978904852138 0.0607256770781627 1.1774699139608480 67 90 121
0.0166510416363478 0.1171682154088599 1.2053791865589842 141 137 128
0.3629266121329611 0.1029125533732874 1.1566612642806371 87 78 83
0.0418042162687425 -0.0210564226488907 1.2392041959647371 67 56 36
0.4299232987382080 -0.1100828385551700 1.2440440311277345 133 163 165
0.2772374196389864 -0.1584288623095368 1.4346585123206643 255 255 255
-0.1076527910411625 0.1117858904514695 1.2246691197909840 65 56 47
-0.1732352259508083 -0.0317878955407375 1.2261389745527327 57 79 116
-0.4391777058614127 0.1437334990699214 0.9975686490401517 180 189 162
-0.3800330502375559 0.1715307847752731 1.0059381613576959 128 136 173
0.1243941015790152 0.1308503006851384 1.2643934653047315 112 104 102
0.0016353977738535 -0.1706443207417106 1.3610066718694624 91 107 141
-0.3850591400282434 -0.0027077409720555 1.0440649641339981 46 58 108
-0.3029442706887953 -0.0554187634840228 1.0565265553581220 106 83 75
0.4736380887536899 -0.0443267884922889 1.2048440860494616 229 253 253
0.4118492409365791 0.0097413228705720 1.1849481840957152 87 75 51
-0.3248087538710336 0.0400692252718903 1.0383298883393286 136 123 132
0.3395035331219498 0.0842440230732456 1.1512363522223004 162 162 152
-0.1935407287574476 0.0481567095453635 1.2234043448108034 142 148 134
0.0506736793624128 -0.0105725003553084 1.2449196842342356 154 155 149
0.1283120845196445 0.1144936830201233 1.2683932016102486 126 120 106
-0.5832171071050657 0.2295171701533537 1.0551320103121506 255 248 255
-0.3081370835850367 0.1349011066148970 1.1850678511909043 94 93 88
-0.0285824630653713 0.1940900853025671 1.1997897747440063 141 166 197
-0.4126420679270068 -0.1959970794554468 1.2877019998754653 111 122 152
-0.3446376447108728 -0.0006354742219317 1.0433344402778897 127 125 136
0.2285221861975356 -0.0540964489521857 1.3364058653576745 109 111 100
-0.3182640010449491 -0.0761789140870190 1.1205871858170626 76 91 124
-0.3536321128206883 0.0908370547952057 1.0237616342009765 144 138 116
-0.0516558718507782 -0.2730954444849765 1.4241270755627518 28 40 52
-0.4116849589194146 -0.0017574148783039 1.0316982270504746 188 191 196
-0.1920323420360888 -0.1889672296999559 1.3719936038896019 102 128 161
0.3606705710706703 -0.0022006436727220 1.1764749480711332 113 87 86
0.4530592458238447 0.1497189659779405 1.1640776258530494 96 75 72
0.4085155363685755 0.1427093112870264 1.1633476966577665 39 39 39
0.2455094655061957 0.0280875487318776 1.3072266237066759 140 132 121
-0.4076184189030639 0.1580063038009695 1.0011171306784210 160 153 145
-0.3249190228701509 0.1854099372481114 1.0101557751620316 80 61 57
-0.4256343618964445 -0.0048655898176685 1.0295220855417435 190 200 202
-0.2979947947978970 -0.0554247273838742 1.0741386590420399 140 135 131
-0.1760688756162562 0.1916745138692272 1.1967660991789455 73 61 63
0.2826707424236555 0.1492184276589008 1.2901532797021742 104 112 123
0.2062393369139448 0.0549093756621652 1.2938727764282225 88 70 66
0.1930257164733585 0.0123717808536194 1.2964313767976290 153 142 122
-0.3498486732267220 -0.0050446718820675 1.0433297801765176 154 156 134
0.3400740699332626 0.0818209361859040 1.1513026370758119 73 75 70
0.3405625537621414 0.1221307451336748 1.1486126196521433 65 60 66
0.3610185764191837 -0.2056846927966118 1.4586684819604956 143 133 134
-0.3926172215900714 -0.2332208600298649 1.1600703541410184 148 134 229
-0.3350816036075989 0.0207889681459553 1.0434630658080810 151 141 132
-0.1018711555098670 0.0248742164763010 1.2437778283357865 114 95 97
-0.3498556750884740 -0.0050598155986418 1.0433278692049446 154 156 134
-0.2173251298730723 -0.1944712383908753 1.3738191493466305 97 112 143
0.1333656122254904 0.1065013710437482 1.2679263355048100 135 134 130
-0.3625600194313939 0.1849283735104745 1.0032580337922019 171 157 174
-0.3456539330377289 0.1403971125174344 1.0154739441783118 62 54 43
0.3408885757569013 0.1560644513640642 1.1418830992172961 70 63 71
0.3717168447199194 -0.0855566343001396 1.2033157867148909 119 90 60
0.3417195181578344 -0.1649260077733586 1.4478144356029379 118 124 146
-0.4114129846634124 -0.0065993901245080 1.0323465029066727 153 152 160
0.1583546894848828 -0.1787824122347397 1.4393332628754765 106 127 156
-0.1041277983254483 0.0681819063772185 1.2341265654763152 58 50 48
0.3142685905978967 -0.0441270224359402 1.2332237793929137 38 39 67
-0.4104174725908202 0.1390610649774008 1.0042146874637745 93 73 75
-0.3306107735846728 0.1214834020186350 1.1747496135255597 70 69 77
-0.3067067475267499 0.1388279563472156 1.1920151888653945 54 68 77
-0.4011843219328349 0.0530471332248055 1.0216756352697942 129 131 120
-0.2824548931202879 -0.0850505848990204 1.2291538867926075 94 84 74
-0.0308768690681719 -0.1926644405974129 1.3750869876924072 92 114 151
-0.2740590623216202 -0.1737142251395870 1.2981312496272710 255 255 255
-0.4302385546961104 0.0645707638372082 1.0161236679176957 96 79 69
0.4125316714274891 -0.0755743099017534 1.2009908056496026 108 99 90
0.2881276177226081 0.2343204517749093 1.2751966314356631 51 49 54
-0.2202665493333896 0.0682391237145754 1.2211660954184809 50 76 99
-0.3542078788693429 0.0221532271501378 1.0368538742312221 156 154 142
-0.4107798723784871 0.1115850775047808 1.0095325793845376 145 132 123
-0.1893677971135809 -0.0220488571779427 1.2273368522564956 175 176 168
0.4573675341114203 0.0239464357924682 1.1880923026503645 153 156 145
0.1461464782602191 0.2134771709750555 1.2531772263678407 111 106 102
0.0505048420580094 -0.1987636700967184 1.4346908771073288 94 106 122
-0.0865379997101957 0.2242665008267821 1.1757673425763959 109 117 120
-0.4038922703962560 0.0764862058777072 1.0141836813773932 153 145 134
0.2874835210668223 0.1158895700647812 1.2923292453021584 75 64 68
0.1460298811299167 0.0731390556147694 1.2797663357523839 147 146 144
0.2201705865082686 0.0376718660791309 1.3012043896316203 109 80 74
0.3474488485230975 0.0133290333977886 1.1712741036298282 98 83 80
-0.3577127220604623 0.1320281942875437 1.0164706023022987 143 125 113
-0.2053335160017002 -0.0688441402819277 1.2430656936056410 125 124 129
0.4199298074568330 -0.1358497623993546 1.2602111240618643 103 120 148
0.2192910153951348 0.0283886921087800 1.3029258378928181 108 90 80
0.2326678551662714 -0.0276570901863191 1.3181128160648186 164 174 173
0.3386607640164065 0.0499419946253712 1.1614567696820401 172 171 151
-0.3488274322163737 0.0906193384593902 1.0256905214049628 139 119 121
-0.3515212811009734 -0.1775405468178929 1.3308247264499358 184 192 195
0.3131596103782262 0.0090075068899697 1.2082662664180903 141 143 130
-0.3291802844505799 -0.0199040485489381 1.2054398458653022 185 180 161
0.2669263929934234 0.1894319795718737 1.2864997729426741 80 92 118
-0.3204708070717329 -0.0085354022218101 1.1428617663072425 163 164 156
0.1473766992821144 0.1439736661034543 1.2665600911420689 121 124 113
0.2170506367717530 0.1004885650035101 1.2921118874023250 164 171 163
-0.1094195321241131 0.0182444906553604 1.2414253898612047 141 134 126
-0.3635973442310292 0.1859485562038052 1.0017530331761646 95 110 141
-0.1901767277418491 -0.0391650193649246 1.2418508242950710 125 136 154
-0.0014220829724448 0.1224933296081299 0.9242000195996489 51 50 64
0.2227198150812243 0.1254184967831539 1.2923814823119628 98 79 73
0.0457475613130090 -0.1854204515343870 1.4103403344590857 68 84 117
0.3275833056037467 0.0744406622995310 1.1472801907470422 91 92 112
0.4162917429604120 0.0120991387146753 1.1831264167991180 174 174 148
-0.3848779626537776 -0.0615750427236581 1.0402852643905760 146 133 116
-0.3206216762799792 0.0212508296336718 1.0419174252102814 128 116 130
-0.4119746672892944 -0.0120187711394706 1.0322184912543371 91 82 85
-0.3086908665816719 0.0109693817371187 1.0747592600923943 133 133 133
0.1258221506149237 0.0165831512584579 1.2867203156004436 131 128 109
0.4195387417227355 -0.0732008532731339 1.2046420625309244 79 87 110
-0.3263441069248749 0.1284814073770729 1.1796496513360200 80 70 79
-0.3504395917420747 0.1441823315287770 1.0147375826677421 64 61 44
-0.2678141292380077 0.1478835987066487 1.1883014149596520 145 149 148
-0.0304989169263067 -0.0654024590995057 1.2546652347544973 81 93 109
0.0163144985113706 -0.0455014302739070 1.2474693891248694 135 134 132
0.1063474009038898 -0.0567892280157665 1.3007052218887150 75 88 107
0.3719748465219084 -0.0891931362297259 1.1940300434173583 255 243 232
-0.3261919493777027 0.0791026276457398 1.1891804272383115 103 96 104
-0.2680438991345733 0.0289163853236722 1.2097830743477200 134 129 123
0.3371962291746383 0.0692318962827142 1.1550087252640242 168 168 156
-0.5881635682406183 0.2432017990925647 1.0545292203014935 232 231 227
-0.2481698931962189 -0.0604236084870875 1.2449881229113084 52 69 99
-0.1052106946584981 -0.1704994290401864 1.3635462617463268 69 74 96
-0.1148762745759768 0.0518207843236840 1.2354981315908098 135 126 121
0.3090420050102783 -0.0277799363773900 1.1999254409165718 255 255 234
0.3659975231684003 0.0319339116243234 1.1728172542148283 87 76 90
-0.2555640125424346 -0.0527708931239092 1.2359236394732824 87 102 133
-0.3333279912421613 0.1105029602655762 1.0242143652462949 154 153 135
-0.1725932494321030 -0.0223633634078033 1.2309755352776242 138 129 124
0.1038855400074645 -0.0117752865635638 1.2800435985220320 164 148 122
0.3137922951266613 -0.0224964881122654 1.2084257987615523 255 255 212
0.1665385297484438 -0.0099078534997735 1.2919242418726815 152 137 116
0.3374365446774887 -0.1771592485908997 1.4600407905814532 90 88 125
0.1964294130342750 0.0016705216333246 1.3013284829712402 139 127 115
-0.2021182963739789 -0.0359809902303874 1.2395851785710055 120 133 150
0.4275197397016828 0.0509687794994493 1.1784719432356048 61 57 58
0.1016013704899700 -0.0130272888949276 1.2801002781995852 76 74 51
0.2219516651628724 -0.0083026779586441 1.3022701979982496 154 138 122
-0.0303406383435381 -0.2668762922731935 1.4425226578375439 75 77 128
-0.1687218959058661 0.1643310269783776 1.2030212861314002 116 107 110
-0.2999432894378879 -0.0917367653282224 1.2269510584267171 184 184 176
0.0081224996989647 0.0948393413288773 1.1988891311334682 140 133 115
0.2966940665948181 0.1467254978761596 1.2781271945536532 110 115 118
0.4566036629937903 0.0303186850435729 1.1883344357954069 125 107 103
0.2297678677611626 0.1971341890650105 1.2727880892401202 105 99 101
0.2561778306904057 -0.0105652875243764 1.3084331204691331 143 132 114
0.4207942613426484 0.0602115394496949 1.1744544744608465 94 86 83
0.1931301039964488 -0.0103305516878360 1.3012228366478866 65 57 38
0.3961980538012201 0.1474519586127569 1.1585392503782150 90 100 112
0.2491673243836703 -0.0706871192774785 1.3368972719237380 84 72 60
0.2847574761555434 -0.1367959824818246 1.4389713160865854 162 169 179
0.3091878192880979 -0.0215278804636179 1.2207398485665339 103 85 71
0.2763161550499701 -0.0074779386384098 1.3138805718816131 62 52 51
0.3112724658698222 -0.0014053709408126 1.2146883652248939 87 72 69
0.4553546261075364 0.0045272506385509 1.1917689532456568 138 132 120
0.3370930340760692 0.0649086895731289 1.1573789356882747 100 86 86
-0.1875788666189562 0.0383878303152078 1.2234437952127752 154 148 136
0.2953217158962392 0.0540296913849814 1.2953725807934344 124 133 130
-0.3257888682204304 0.0937407961260281 3.9852261053472064 107 103 104
-0.2478468937305650 0.0617484065444348 1.2070408940628461 82 65 71
0.2955660905721289 0.0702580441216480 1.2926891643814997 125 137 133
0.4268154361945589 0.0371008587892333 1.1814752036080984 149 148 144
-0.1536156063939883 0.0906176669330104 1.2186060231287190 53 62 79
0.2163236233789088 -0.0858361301552332 1.3690750034568251 117 144 163
-0.3352555330971662 0.0685309527711326 1.0307394129329261 132 103 87
0.2059902793709617 0.0589342157233399 1.2935781981781058 154 150 141
0.3159692534161912 0.0782899065663138 1.1695507874625140 150 155 148
0.3173387544094197 0.0821086711109818 1.1492685468905128 53 58 77
-0.4406184513860847 0.0382251804880896 1.0132611120143376 134 142 118
0.3223251290894590 0.0817287694774683 1.1482737196788757 23 35 31
-0.1829013533307761 0.1174757195905274 1.2068200750200790 127 127 119
0.4265616558239135 0.0849756152215067 1.1680373230535521 54 63 70
0.2228546679548123 0.0672062840058255 1.2962872746834997 82 72 63
-0.1040802037195890 0.1194894431388956 1.2189812726857194 103 100 93
0.2189549020446692 0.1306872578858783 1.2800215302803870 139 140 135
-0.2074585750888178 -0.2112977829329163 1.3855966944217555 248 255 255
-0.1621968652424931 0.1133650858605424 1.2116254501447323 84 84 92
0.2024775176873130 -0.0245499122554603 1.3112081824888802 44 56 78
0.1850932107220683 -0.0101440643610635 1.2966038624761735 93 73 66
-0.0958984407009871 0.2316732459260148 1.1648428979070933 99 116 146
0.2276155753589624 0.2386638135751386 1.2670610138615055 117 121 132
0.0988400377982111 0.1122047496747003 1.2645558914927979 93 84 85
0.4702275374477912 0.1762088916665180 1.1612636662755116 134 134 134
0.2776109385247578 0.1313205027950637 1.2893520895489052 109 109 111
0.2925320418935516 0.1049806539714061 1.2964262917978810 129 132 141
0.2828816500845674 0.1250833700507809 1.2957471562658249 54 50 65
0.4545118079174707 0.1038956069086689 1.1761629044415487 89 72 62
-0.1188252014457649 0.0792458598220786 1.2282767501254415 131 120 116
0.2810666443036000 0.1305202263542748 1.2901198265997862 101 99 102
0.3666252736011862 0.0097415464265087 1.1746324872832463 94 88 88
0.3125985137685319 -0.0093235784514438 1.2003047188526428 238 230 191
0.4236533288120961 0.1338280834993093 1.1613933736694917 152 137 130
0.2108781109062373 -0.0097500220705395 1.3016913651254416 94 85 80
0.2255382450627535 0.0071454241691799 1.3068477604148030 138 135 118
0.2196455967164880 0.1379011558806558 1.2812233950531764 94 77 70
-0.0182222557588870 0.1622501160828927 1.2070617460721960 39 41 64
-0.0583164325466402 0.2183800877250528 1.1381003076300569 13 32 62
0.2347936985155522 0.2321950829593422 1.2669941056110872 111 113 112
0.1374611194045672 0.2404227197152698 1.1966733221227022 85 84 90
0.0143248027527233 -0.0256844212137943 1.2318473475817124 153 142 120
-0.3522491079944867 0.2191324070988785 1.3917248721821289 36 52 67
-0.3213049929361184 0.1361445919253407 1.0210240730317590 150 136 123
0.2235647312550866 -0.1700914107682008 1.4473126067022979 252 255 255
-0.2553077684957946 0.2575029169671715 1.1156444105828589 69 85 98
0.3283797648128256 0.0962674183679190 1.1509943544569743 137 136 131
-0.1345019904053766 0.2516591212792963 1.1931247522483104 45 51 75
0.2527495863520374 0.1088805088638477 1.2896637540049742 105 105 105
0.0970351055844174 -0.1700051824496273 1.4193975389705236 13 38 68
0.0066033518876115 -0.0324862946077928 1.2333740962152495 75 92 120
-0.1404401810681395 -0.0932927209697973 1.2631896801444586 33 54 75
0.1497773711250068 0.0966685602763234 1.2760747751567922 109 104 101
0.4371170822523303 0.1565093230972278 1.1591637893486750 134 129 123
-0.2441034839991759 0.0299404843125153 1.2136230445774949 128 127 122
-0.1559012835957536 -0.0722461073532788 1.2526290821523498 89 80 71
0.2072484944385650 0.1770250501881040 1.2720491616156511 119 113 113
-0.3202642532298483 -0.0373059683134827 1.0552755549956687 84 72 92
0.3330972782580596 -0.0885786376516242 1.2515586928197628 96 87 168
-0.2219965627715254 -0.0175257802514502 1.2259464250014536 164 157 139
-0.3220815090520497 0.0011386848771787 1.0470338324982704 191 169 182
0.1301166643157739 0.2163576086880559 1.2536781348462311 56 57 61
0.3064310415835327 0.0743099711469551 1.2372770137443923 81 68 75
-0.4554502625217520 0.0316782481741205 1.0189133564423067 125 139 152
-0.2456272760707157 -0.0058548015447161 1.2217872799057039 54 54 52
0.3764819889912301 -0.0778882443488054 1.1936424775153098 153 148 128
0.3892475903397712 -0.1954453678907989 1.2951188487796346 221 255 255
-0.0155748822524003 0.0721898777253617 1.2319842538216241 112 131 163
-0.0274330008647490 0.1439641459564439 1.2089467932993219 52 69 99
0.2870481485364428 -0.0425763696848465 1.3430846823889302 78 95 123
-0.4056988962000249 -0.1836441142094488 1.3003175940510625 184 181 172
0.2627419658132304 -0.0079186679621066 1.3125922720945258 59 52 33
0.3679674628807174 0.0939261954286456 1.1588096252670774 152 133 101
0.1473046962871574 -0.0246080785027428 1.3015040943362204 125 141 174
0.3218336920059496 -0.0443716574634164 1.1675748456659809 99 112 144
0.3679120508913277 0.1897922574723919 1.1404995735803811 132 129 114
0.2701656875606399 -0.0078716697149762 1.3135901514286574 73 64 49
0.2069189811418558 -0.0097363693995092 1.3027714238765449 62 55 36
0.3282599922533350 0.0965139200503393 1.1506688665015963 137 121 106
0.0773666946454626 0.0754040809166576 1.2655684388759254 155 155 147
-0.3706100768777476 0.1220264230306550 1.0152124852151336 103 122 137
0.2295083536205122 -0.0654014335744189 1.3217736315038469 128 118 109
-0.4243559217202446 -0.1917252491428357 1.3392854374499505 255 250 255
-0.3949412365462833 -0.2574291846229284 1.1626790432055689 82 99 129
-0.0995937924951306 0.0126754697293956 1.2455686367012708 60 53 45
0.1610573315011058 0.2572004191653319 1.2167795706483338 6 21 40
-0.4291975066198142 0.0570425189416059 1.0131873794615689 93 95 107
-0.3942394584308612 0.0571448407856585 1.0231572914907123 135 132 125
-0.4376525480705085 0.2162480157876182 0.9821489245152287 128 110 98
-0.3069621412386517 0.1673464976451074 1.0156253669632889 155 150 146
-0.3075254574239614 -0.0352722377089529 1.0748739162035703 111 108 117
-0.5083037570163035 0.2394675619043574 1.0556205382781123 81 68 24
-0.4087237368682431 -0.0266811811650705 1.0372500668535667 193 194 199
0.2828352248219307 0.0419869496006017 1.3121777135104051 86 71 76
0.1952708078198363 -0.0615238405407619 1.3390542200719522 104 93 97
0.0384529278718312 -0.0860340602685503 1.2932624220818074 118 141 172
0.3148034903953336 -0.0462175728860742 1.1653740687114422 79 60 92
0.1296169209594139 0.0566370911409007 1.2799733256106784 158 145 128
0.2888957233114922 0.2870554687203176 1.2573014911514127 0 18 32
0.3437799117538055 -0.0203939041413514 1.1760714533669552 72 64 61
-0.0269576686353483 -0.0647332012373352 1.2434192025200237 81 101 138
-0.2282569663907265 0.0942226706241793 1.2004790718086824 122 126 127
0.4045029575875284 0.1479375628499942 1.1619336759260939 103 123 134
0.0451162935379272 0.2217047956311101 0.9837536836693145 56 77 96
-0.0005760863800500 -0.1048610426772449 1.2505525947904597 105 87 75
-0.1813645733771220 0.1020964709932040 1.2120211551120981 89 77 65
0.0427337799730525 -0.0018441206847936 1.2418849827502874 161 150 132
-0.4111474595671702 0.0997001398211648 1.0116346607409490 152 134 134
0.3772474885720502 -0.1899821426382266 1.2886503696755975 72 54 138
-0.4121200617663477 -0.0287364337317696 1.0359584726981648 95 80 83
0.3910375134023721 0.0214643748902663 1.1821310591885397 53 82 114
0.3631816150011214 0.1635571397280199 1.1452110462901661 93 80 71
0.2728512672989425 0.1035351846776383 1.2959230328748808 128 128 116
-0.3215984531373541 0.0967286230607769 1.0283113854766648 152 137 118
0.1285755251991301 0.0808889421621455 1.2762518670619096 88 79 72
0.0785739740966210 -0.0320182114578193 1.2882629056615107 148 164 177
-0.2460284202869961 0.0490209833654330 1.2111263285726874 142 143 145
0.3486242278622192 -0.1988861469873616 1.4553173404516095 100 84 94
0.0424198762504569 0.0448465558973025 1.2337009690454055 122 114 103
0.3779485202479689 0.1683291155316609 1.1456573352296384 134 120 107
-0.3018308413093543 0.0333816149908722 1.2128686255939691 118 135 155
0.4611100199576602 0.2157063508234748 1.1517772401011350 112 127 132
-0.1669826463991720 0.1048535663943536 1.2145690447374069 128 122 106
-0.4143920407625804 -0.1712695351276678 1.1136581026723509 143 178 198
0.3189081522432538 0.1110421012476515 1.1605001741410599 87 79 77
-0.0205728143180068 -0.0234837044881359 1.2268077915489550 130 118 106
-0.1814270925470216 0.0313248279580886 1.2267482174749786 87 80 74
0.1492530047111647 0.1359390709994045 1.2685816189700463 142 150 137
-0.2605590389272823 0.1450305075982335 1.1897797811972886 114 111 104
0.3503388516558127 0.1327463786066256 1.1479246522526756 147 141 117
0.2815321834869342 0.0640992037191149 1.3076220028545407 108 111 118
0.2071537700713263 0.1606582166649014 1.2757735857567643 122 121 117
-0.4371149983959478 0.1833783645398052 0.9908175360408052 107 92 73
-0.3150658880433178 -0.0510774542120025 1.2199867931475199 31 46 65
-0.4012716704637141 0.1913156415374180 0.9945608497242058 162 153 138
-0.2451973453901046 0.0606370342579665 1.2079478051571750 139 142 151
0.1460335289554738 0.1663622448419002 1.2625152951762708 115 100 107
-0.1892871952624139 0.2317436398514870 1.1814608271145168 118 131 140
0.4192594607659897 -0.0396757549164379 1.1837716294299867 70 81 85
0.3705155399913134 -0.0338775780924605 1.1728837137522907 150 131 98
0.4098179474049308 0.1813044573794430 1.1568885068613877 9 33 33
-0.1729933999713560 0.2476773197643398 1.1369448611768442 80 90 100
0.3955470619152734 0.2322366128864086 1.1323781122662351 124 129 123
-0.4363942173391270 0.2062365029217114 0.9840754313161935 170 170 144
-0.1704747174146490 0.2507614988638400 1.1372823025084320 36 48 70
0.0090640597617543 0.2437776852799584 1.0682751837831816 54 70 96
0.0334209231192341 0.2479760580019224 1.0536764434351047 67 85 105
-0.1033790358522835 0.0762145768093905 1.2352138993726236 57 51 51
-0.5865281351503766 0.2431776881622891 1.0521275195805257 199 200 195
0.5303871459881691 0.2665514324364153 1.2303800088376577 32 29 48
0.1896663746890684 -0.1930415061559314 1.4528412327273654 96 103 121
-0.0915733331638295 -0.0087024588177152 1.2202907401852143 162 153 136
0.2024034546446134 0.0362520970301199 1.2973292007969515 135 129 115
-0.3965134346379084 0.1385949932552325 1.0116521970787775 112 131 135
-0.3105982666295516 -0.0551601313084008 1.0540044599142115 106 87 70
0.2488714267237566 -0.0581581855478881 1.3237401022618775 154 138 122
-0.2456953046479867 0.0768208384587353 1.2055005086175101 165 165 167
-0.1082568300310538 0.0610642769300443 1.2344900425975613 91 81 71
-0.3756724403455134 -0.0583822592108415 1.0399046171492108 150 145 123
0.2856758014642489 -0.1576368033441900 1.4350647501726455 103 107 132
-0.0477653411833139 -0.0851123000086288 1.2741798710131240 77 86 103
-0.3216089300059259 0.0009117611527278 1.0465297859385283 154 148 148
0.2297098055123977 0.2136931614920705 1.2692353116777231 97 99 96
-0.0285091849136238 -0.0312780216193844 1.2304161986051159 88 91 106
0.3342162037989638 -0.1221965876869852 1.3903333372305546 251 255 248
-0.4240123982134745 0.0251808359844212 1.0214895136179323 130 104 89
-0.4582624968460220 0.2194457511052191 0.9771126219092598 176 164 178
-0.4104806713065712 0.1024926546259980 1.0115194005330783 107 96 112
0.2758726475990891 -0.2033354784424911 1.4448100346016621 251 244 236
