ply
format ascii 1.0
element vertex 696
property double x
property double y
property double z
property uchar red
property uchar green
property uchar blue
end_header
-0.0146471170845419 0.1438792695674049 1.2101585991506192 94 101 119
-0.1056398301179282 -0.2077965792128873 1.3724937947224227 104 106 127
0.3988079790849519 -0.1674668338014061 1.2790376332391420 126 144 146
0.1750016296554071 0.2168327761029659 1.2683410815566794 74 100 137
0.3816512441419599 -0.1907391591757278 1.2927063847622240 105 125 150
-0.4598069665267742 -0.0768571736799802 1.0386548902720449 255 255 255
0.2879955931402678 -0.1589862942168795 1.4385852756095503 161 178 170
-0.0405145968300892 -0.2858613520618805 1.4367638485667362 66 73 101
0.1991642415738507 -0.1843928931977525 1.4546531355455936 68 86 106
-0.3039872730878933 -0.1504650949179752 1.3167458816977982 104 144 179
0.0522209007093032 -0.1069803525809100 1.3489071937521475 5 38 47
0.0889431447529596 0.0555798157311145 1.2812318676090799 64 76 102
-0.0289242120507519 -0.2873247501672245 1.4409243309669537 109 116 144
-0.0677396201866216 -0.1723887241095500 1.3497450855972770 165 189 225
-0.1058467335840041 -0.1898570522488302 1.3692392280283916 115 116 137
-0.4048010350874722 -0.2361255300317229 1.3061969342177053 118 116 119
-0.3582625044277487 0.2178956999235053 0.9993161019060247 127 125 126
0.1143142252755091 0.1045263781051724 1.2672145258478447 149 158 157
-0.1055395813325356 -0.0958686443709496 1.3114013034259890 90 100 127
0.3777462534123286 -0.1932715296215461 1.2926750097740383 59 44 125
-0.1448556485889977 -0.1872379638229880 1.3784966509594956 70 77 95
-0.3820899597199492 0.1544487795299118 1.0140821287025890 146 170 180
-0.4440109290879350 -0.0617119237501445 1.0276592695694970 160 161 155
-0.3251699756516493 0.0530014619044406 1.1967255343542933 71 60 58
-0.0405145968300892 -0.2858613520618805 1.4367638485667362 66 73 101
-0.3139075394730795 0.1896097382953744 1.0159363806015724 105 98 92
-0.0781893559805940 -0.1012235406943583 1.2838855322812264 136 163 192
0.5245996608821312 0.2809767954672696 1.2553379483203697 29 35 51
-0.1058467335840041 -0.1898570522488302 1.3692392280283916 115 116 137
-0.3956315401301927 -0.2388697971995236 1.1607170137008163 64 75 105
-0.3347118004700746 0.1726785811760683 1.0133380998747841 86 62 58
-0.3349103438760472 -0.0172308090901472 1.0492211415771306 92 83 86
0.3430943823575703 -0.1997209126275706 1.4578555646592544 138 141 150
-0.1224278884044868 -0.0446542397493414 1.2558431686742724 135 137 136
-0.0313337574036563 -0.2090997648837608 1.3863746660241287 149 167 203
-0.4330999335543539 -0.2283057609457509 1.2951582322461894 154 153 171
-0.0135536823270218 -0.1201265035002145 1.2535893882228475 162 152 143
0.2876290565318121 -0.2151231597788807 1.4470970973146791 45 67 65
0.2903344072016589 -0.1882572607247436 1.4452460520829096 101 120 134
-0.4471071534841053 -0.0927720426410220 1.0515187360446159 80 94 103
0.3865010579121783 0.0176199745451074 1.1843390394072997 55 72 98
0.4039602234740424 -0.1686987255255802 1.2803560694450131 186 241 238
-0.3579217864479647 0.1319496454191885 1.0177797027087625 143 125 113
-0.1396747075954244 -0.0788089342717121 1.2587707212744064 121 115 115
-0.3820899597199492 0.1544487795299118 1.0140821287025890 146 170 180
-0.2142673128105705 0.0246365121975971 1.2251087554966706 98 115 135
-0.2179851366187736 -0.0816186723541091 1.2461209811353167 120 118 121
-0.0321204955971434 -0.2396896319138440 1.4157631060159244 77 82 112
-0.1057803132991109 -0.2219693413347393 1.3749977328533245 56 52 66
-0.0400677610449547 -0.2096775998639399 1.3863596773151448 159 156 177
0.2076050074987275 -0.2022878666021521 1.4765797277164276 253 255 254
-0.3576357300944722 0.1663040393577465 1.0111824319807878 144 127 117
0.1608034606894345 0.0892981903586337 1.2803970498524078 71 94 110
-0.2090434934003320 -0.1780465274326179 1.3626639005188659 85 110 150
-0.2895209169193556 -0.2502683488625189 1.3839108598213379 240 255 255
-0.4136375890281076 -0.1810385224610985 1.1199509357791402 116 136 143
-0.0444826487610423 0.2133150530294113 1.1707260130302506 21 34 40
-0.2909843877792017 -0.2106495871944008 1.3712810791570338 47 72 69
-0.4024821550902983 0.2142420129875064 0.9928358133045222 146 135 129
-0.3074346218805134 -0.0059878066975767 1.0701777095701397 108 105 116
0.1759164646334821 -0.0704441628695209 1.3169185438858371 145 146 138
-0.3580730808334659 0.1496779619380444 1.0145308218418165 132 117 96
-0.0487258324098079 -0.2776388582134985 1.4222514735995995 240 255 255
-0.0452091462103675 -0.2779344527757839 1.4222834691438329 75 85 110
-0.4036537495895931 0.1666961948621556 1.0032571730455291 144 125 110
-0.0413111330984174 -0.2468840651656480 1.4180691163146584 255 255 251
0.0556443778462981 -0.2036602072966369 1.3716694724852010 207 239 254
0.1661929215575724 -0.1427573917298323 1.4845179784893749 63 81 117
-0.4035613799308194 0.0314090853521423 1.0285042032536009 130 128 115
0.3290631893748083 0.1553143260650178 1.1408058849353397 138 138 130
-0.3458911313232627 -0.2342258696671023 1.3287812540698796 74 73 131
0.0221943674518501 0.2155688029279458 1.1844044049336557 73 68 72
-0.4360842157080405 0.1554973192749486 0.9977824875819398 96 72 70
-0.1765225952921998 0.1409210833678654 1.2080828004793209 74 64 62
0.3290631893748083 0.1553143260650178 1.1408058849353397 138 138 130
0.3511034474976025 0.1217574512215732 1.1528091753830896 95 75 64
-0.3806815153356150 0.2261376501721013 0.9929084358474008 54 53 71
-0.3924855632709676 -0.2248352041131408 1.1505143054582330 117 129 143
0.2489189174593743 -0.0668235694171971 1.3298422341109555 96 98 97
-0.0812668378806374 0.1379797615812291 1.1933642833650502 135 134 132
-0.1611447561098075 0.0668994862158258 1.2227380965671597 133 124 107
-0.3731082347662159 0.1789354763804868 1.0113974781843504 16 21 24
-0.3576123032836837 0.0316350028072895 1.0364242433005977 154 152 140
-0.3077983953566887 0.0592913295619680 1.0567011992955970 135 145 154
0.0964648306791418 -0.0709947405006748 1.2988976703446409 92 91 87
-0.0672946185375202 -0.0551825316120772 1.2441587497333531 55 66 96
0.0977953309166891 0.0899539907912792 1.2644697682737864 65 76 96
0.0640080805076637 0.0919243139848395 1.2283751144027750 160 169 176
-0.1011881816821548 0.2098369179517856 1.1928813802717968 62 56 58
-0.0138325519079087 0.1066955047992368 1.2091590374900132 141 142 124
-0.0674659307315410 -0.0554052964055621 1.2456381026651850 55 66 96
-0.0125437423651092 0.0834852342489506 1.2150675621140110 6 42 56
-0.3079647016188007 0.1618694618120986 1.0319707967898544 146 154 156
0.4505649327671624 0.0066854420618425 1.1962674049876225 100 89 95
-0.1067405786586023 -0.0486009828359635 1.2513546395176731 38 50 74
-0.1625925121500907 0.0332785415419126 1.2305466906729214 142 138 126
0.2920480368906221 0.0123598725165967 1.3051718947705091 119 130 136
-0.4358572511106422 0.1059551551308196 1.0069779439072604 94 80 77
-0.3573964983811700 0.1151930374562365 1.0206332901707809 182 178 167
-0.1768877469297585 0.0572970525874264 1.2241029352701251 78 70 68
-0.3909027012735642 0.1787859701165133 1.0078919890930813 13 24 26
-0.1025957802341592 -0.0097227693787794 1.2378603671877200 78 65 57
-0.0830875256392514 0.1106585817992016 1.1973641587920281 132 128 119
-0.3818391075818497 0.1393442649485146 1.0168421505383516 145 168 186
-0.1763829946186560 0.2122917753970913 1.1942994837095580 63 50 57
-0.4156182943208808 0.1549100838638814 1.0020053416342547 60 46 35
-0.1619808428683588 0.1847117650077211 1.2015385169248318 138 143 147
-0.3236762049888374 0.1076382365476967 1.1848892761271457 67 56 60
-0.4156041669572159 0.1066350131183493 1.0110560403531024 82 74 71
-0.2401973193618201 0.0642700239006441 1.2108922689103145 164 165 159
-0.4358768872003396 0.1222865170094217 1.0040582350848772 89 77 77
-0.1770495657998219 0.0763340191832132 1.2200184462089003 76 67 70
0.2205461868885116 0.0538859213952546 1.3015024213434800 87 69 59
-0.3566313073013962 0.0463982418779159 1.0330349753604680 155 150 146
-0.3719238869445493 0.1617115739898019 1.0123949839526420 12 26 27
-0.2536253913317044 0.0555599250349461 1.2099575351092560 79 68 64
-0.3458591401620433 0.1088919823412448 1.0236124855600548 81 69 69
-0.3720251960623926 0.1470451449314683 1.0157941400589416 12 20 22
0.3236542632360918 0.0990289997012732 1.1510094687904762 175 176 160
-0.3909827075546201 0.1114518808134691 1.0215885350841380 12 23 25
-0.1765796962281133 0.1591662334474527 1.2044176027225666 70 61 62
-0.2533741386524708 0.1384986836467064 1.1941090771342997 109 107 110
-0.3100252406830203 0.0207406022625132 1.0749668653584901 175 182 175
-0.3719531875963035 0.0492122609206031 1.0348580470134876 67 82 89
-0.3130147637561893 0.1031216136540671 1.0304408923825144 164 161 154
-0.1768877469297585 0.0572970525874264 1.2241029352701251 78 70 68
0.3484251180912424 -0.0637150449855220 1.1970666507144236 45 52 68
-0.2539596279665202 0.0747934650145309 1.2057230624669428 62 53 54
0.3818516069545717 0.0794063166188443 1.1651047801206080 64 83 100
-0.1773010451664556 0.0239710183779631 1.2304737658947222 95 80 73
-0.0880138677294643 -0.1851855775836226 1.3631721193235118 57 64 83
0.4591417026253567 0.0427121600099846 1.1917818442820614 136 131 112
-0.2538301384790815 0.0379831775437047 1.2132247627393957 93 78 75
-0.2392521731455360 0.0306326319880808 1.2164482960472545 122 125 114
-0.4152132993844266 0.1225016767838814 1.0084343332934658 84 69 62
-0.1773010451664556 0.0239710183779631 1.2304737658947222 95 80 73
0.3679973555375104 0.0207156210546114 1.1749278866345934 164 158 144
-0.2532222808315758 0.1273578602248222 1.1962786448410427 77 67 65
-0.3722367411681984 0.1315248331725084 1.0191564959232637 16 26 27
0.3775274034459190 0.2429561709372750 1.1433348837686061 103 107 116
-0.2533741386524708 0.1384986836467064 1.1941090771342997 109 107 110
-0.0116006495393139 0.0092349343483739 1.2303492565003258 154 147 131
-0.2532222808315758 0.1273578602248222 1.1962786448410427 77 67 65
-0.4062639871434074 0.0457909253945967 1.0232940279117138 140 143 126
0.1120995693268236 0.0233994964155358 1.2849430447226540 140 132 113
0.0676036322315485 0.0085148169976795 1.2741022964620456 162 149 130
-0.0866665078657572 0.2235518677517976 1.1724856357560292 109 117 120
0.4427428717621914 0.2034710282818739 1.1548632103356811 83 65 61
-0.3908524106518432 0.1113192242852380 1.0209149141247187 12 23 25
-0.2009539042642036 0.0189564275998607 1.2259279336621312 119 123 124
-0.0811761487919528 -0.2185527001636516 1.3889922229899643 218 245 255
-0.3439821090296100 0.0431601974984536 1.0372707405436756 70 67 62
0.2264196058759333 0.2384935972279253 1.2676810839929604 104 107 114
-0.3121653238215107 0.0742643663053991 1.0363339347015077 126 116 106
-0.3238492992080902 0.0083472421565659 1.1599164180394577 109 119 121
0.1378615871746476 0.1698043736340626 1.2626006795158884 64 57 51
-0.1466053939577712 0.0846094945179097 1.2221421991304513 70 81 99
0.3514848704740081 0.0043331520151497 1.1763403256930618 119 102 92
0.3163104032222939 0.0234865969464377 1.1955746229453883 139 134 128
-0.1772328644865594 0.0398850252467589 1.2275127226938596 130 124 124
0.4414629859264025 0.2036567662083432 1.1533094107232835 83 65 61
-0.3716766028042306 0.1113397282934448 1.0216598350317172 41 45 57
-0.1772328644865594 0.0398850252467589 1.2275127226938596 130 124 124
-0.2401381908993656 0.0471959269218145 1.2138036005730095 169 168 163
-0.3577372849557997 0.0143260460719346 1.0404050173717756 187 189 188
-0.3460048618888830 -0.0091509564041669 1.0458103777956176 63 63 65
-0.3281817362510966 -0.0431791968260433 1.0523058777824308 86 74 62
0.0499165045497536 0.0036173121961315 1.2461086043240832 117 106 100
-0.1770439743914965 0.0761337994832100 1.2201791425100998 76 67 70
-0.3719888259896524 0.1113311367267698 1.0224551129073953 31 35 46
-0.0856493887695040 0.0137997977849931 1.2191186230152382 152 148 139
0.4191115925519027 0.1755055111581425 1.1578014152585294 117 116 95
0.1378615871746476 0.1698043736340626 1.2626006795158884 64 57 51
-0.3353407336061771 0.1506979437598769 1.0172743598523111 148 138 113
0.1379177776642787 0.1515542240537302 1.2657868393023255 88 77 75
-0.1613966828514715 0.0166045031425407 1.2323871753164122 136 131 125
0.4195127476150485 0.1933009336050674 1.1543553097381636 131 124 116
-0.3227262719469403 -0.0100613401425933 1.2053253369409818 55 48 42
0.1379430381850152 0.1858630996455025 1.2596737058249314 81 67 66
0.3629803842502107 0.2164382343604046 1.1361355095004226 125 122 117
-0.3459481388748673 0.1568618039851974 1.0145692073385804 75 56 49
0.0721313021219821 -0.0302374555959321 1.2473919388344319 98 118 143
0.1381906575347700 0.2023256970529846 1.2563565519815807 73 69 60
0.1381906575347700 0.2023256970529846 1.2563565519815807 73 69 60
-0.3281925208057773 0.0437245346532989 1.0389567807270892 83 79 80
-0.3250392203608948 0.1237260935899145 1.0246216882921682 78 67 61
-0.3573568559846435 -0.0029395970726486 1.0433923729397414 146 144 132
0.0979192990834872 0.1991865553781857 1.2572559798086775 85 110 140
0.1379177776642787 0.1515542240537302 1.2657868393023255 88 77 75
-0.3602273658961641 -0.0661074189935976 1.0442915518963780 124 141 167
0.1382482340630551 0.2226020139156580 1.2525092059439500 72 56 59
0.0723721591321051 -0.0176126315208920 1.2769352345448277 178 166 152
0.0347135478083554 -0.2375987066288341 1.4109813370528366 46 52 64
0.1382482340630551 0.2226020139156580 1.2525092059439500 72 56 59
-0.3246346546981195 0.1415718572123945 1.0211529645112414 99 79 72
0.1229564089949873 0.1956428362007445 1.2551166846905926 106 102 101
0.0063675110606247 0.1331468645638563 1.2089361881662462 141 137 128
0.1379430381850152 0.1858630996455025 1.2596737058249314 81 67 66
-0.3577851829713362 0.0147238821314344 1.0403501022365302 155 155 163
-0.1628044724612412 -0.0036090414474707 1.2346959456539031 183 182 177
-0.3718380932587833 0.0127096827841155 1.0427102724658415 64 92 129
0.0979192990834872 0.1991865553781857 1.2572559798086775 85 110 140
-0.3717601943056200 0.2190378531718291 0.9986884225880599 41 50 55
-0.3911132964605515 0.1618445434929165 1.0114903231202443 13 22 27
-0.1626249393406574 0.1672117336501842 1.2052253433446773 147 150 155
-0.4125765706959135 -0.0285993847813320 1.0372512298414416 95 80 83
0.3272738196992271 0.1211397375038266 1.1447690299904434 153 149 138
-0.3148266728466622 -0.0722942593046053 1.0579385304789921 29 47 71
-0.3906722755016450 0.1308321518803671 1.0172369617395824 18 26 29
-0.4258927580263767 -0.0636480092408051 1.0308702018549600 143 130 111
-0.3814638579155438 0.1226445793331542 1.0190869380293406 104 118 129
-0.3148266728466622 -0.0722942593046053 1.0579385304789921 29 47 71
-0.3814638579155438 0.1226445793331542 1.0190869380293406 104 118 129
0.2881517179236919 -0.1112472166404748 1.4297925747274998 95 103 105
-0.2592423177263972 -0.1066149384226138 1.2890395232681375 87 103 129
-0.1907707385747311 0.1499522547863786 1.2034547410319232 124 119 115
0.3073204915494349 -0.0645571222971875 1.2598327675352428 49 52 45
-0.3351845364004762 0.1160939530597921 1.0240127664714245 158 149 134
-0.0744242834418205 -0.0468885351039385 1.2342090476757619 39 56 76
-0.0877268153022159 0.2035970099057228 1.1776581988369155 111 119 121
-0.4576322795909538 -0.0265806772768170 1.0273063913234879 255 255 253
0.0976976916630412 0.1841940873103539 1.2602790908008095 90 110 145
-0.3253020256758889 0.1092640070242566 1.0269345256756763 107 86 81
-0.2969440894645485 -0.0908651040469873 1.2349950390500850 145 139 141
0.1528841984791490 0.2102050311357181 1.2574314201906203 104 106 105
0.4189599620585436 0.1581220822675711 1.1599978650079095 135 129 103
-0.1905997340755617 0.1662910610934784 1.2003889835293391 120 119 114
-0.0327263718574069 0.1317955660493020 1.2009186433396799 124 120 108
-0.3184026157343070 0.2030583019732613 1.0067864687840320 101 104 109
-0.4258586394394396 0.1132221772346229 1.0078504364391367 150 148 136
-0.3590745492991844 -0.0884479388210008 1.0670445885504827 90 110 137
-0.4258586394394396 0.1132221772346229 1.0078504364391367 150 148 136
0.1518131554390272 0.0596110881087329 1.2858223562116324 144 140 128
-0.1622584518725282 0.2014765330342509 1.1985930533623570 132 142 144
-0.3220229412665342 -0.0100143602492262 1.2023031109864137 55 48 42
0.2149725892253108 0.1185027402209079 1.2867345849356358 57 49 30
0.1991362286782314 0.1992727407816122 1.2687147431847301 106 95 91
-0.2538949504682981 0.1054096311076486 1.2002956460022673 73 68 64
-0.3679206611755731 0.2168040445727709 0.9969995495506516 80 83 118
-0.1913471624079005 0.0484039465364958 1.2229294411160099 146 137 128
-0.4247559370731019 0.1331623655342035 1.0038608756017549 131 110 83
-0.3816245116760288 0.1225947082302551 1.0199905487876479 104 118 129
-0.1247707377764905 -0.0898652092720823 1.2826116025335832 43 49 73
-0.3352783071858220 0.1161567411679474 1.0241312094877029 158 149 134
-0.2538949504682981 0.1054096311076486 1.2002956460022673 73 68 64
-0.4247559370731019 0.1331623655342035 1.0038608756017549 131 110 83
0.1073799488800999 0.1547766353231842 1.2633718678296366 32 42 34
0.1668365526690233 -0.0456502811475062 1.3137147141340111 70 99 139
0.3955936397959274 0.1360628871832059 1.1586473882683446 63 62 96
-0.1149131683479143 0.1530961711941838 1.2173470580505374 103 101 102
-0.3345548303021171 0.1359729358425765 1.0185852749292192 132 112 88
0.1073799488800999 0.1547766353231842 1.2633718678296366 32 42 34
0.3738599472579236 0.0051852298458006 1.1782285753503250 146 139 123
-0.0550608767875800 -0.2308722113272272 1.4178718423347330 81 90 131
0.3955936397959274 0.1360628871832059 1.1586473882683446 63 62 96
0.1375181564825117 0.0512002604445298 1.2846024129957796 98 77 72
-0.3629098627816946 -0.2182581295297243 1.4107721404820970 201 200 214
-0.1642030049016430 0.0849857445672830 1.2217410191902462 131 124 114
0.1900710585530878 -0.1829105487325833 1.4534780430198246 67 93 126
-0.2686997008310086 0.0465298173149657 1.2088591396942687 127 121 109
-0.1021852044852223 -0.2213549823874620 1.3777127264013589 200 200 202
-0.1910719637354693 0.0319076634369178 1.2259120525721310 137 134 127
0.3521237241175371 0.0944642834604965 1.1591456053273166 109 91 77
0.1378378020004706 0.0675486479849023 1.2817225534321968 74 62 50
0.1702719691458326 0.2488964541898297 1.2487850823172957 46 54 67
-0.2686870577496765 0.0289705203515866 1.2119758002107917 134 129 123
0.0286489283083745 -0.2225901742990749 1.4852961757619014 164 164 164
0.1524236093141889 0.0775688649612757 1.2812648357038252 131 121 111
-0.1770357140964887 0.1076727903767351 1.2148699384247861 81 70 64
-0.2814044868875707 -0.2180512538041630 1.3838832521895641 231 252 255
0.1224393671216554 0.1452535944564906 1.2634042750292405 118 108 106
-0.3177628501300032 -0.0709121612042561 1.1279066265553441 165 170 174
-0.3359321444142244 -0.0011298367088829 1.0466039531403231 158 158 156
-0.5620890345498357 0.2311036716862286 1.0779707205947580 122 112 123
0.1382171670219764 0.0862673108110255 1.2779439143804601 99 80 74
-0.4397596383331371 -0.1967206209100998 1.4042151652644494 131 139 186
-0.1770220837452987 0.1075799270161999 1.2148110252718258 81 70 64
-0.4020553248498741 -0.2277870051140161 1.3122778382370903 239 255 254
0.2793035994693476 -0.1392156201039663 1.4390172636530916 133 122 218
-0.1780904645223730 -0.0086157012681659 1.2376262618190950 124 101 95
0.1376407694974268 0.0333546211972120 1.2884782675468822 97 77 66
-0.3816704424202738 0.1226958387044157 1.0200785102946517 109 130 151
-0.2685615275443911 0.0624691283013961 1.2057096613773255 127 121 109
0.4047771778598065 0.0179058720856956 1.1902117243686259 67 67 103
-0.3986806592393155 -0.2122380377534825 1.2068433222362869 135 147 189
0.3459989579341016 0.0658670135026664 1.1598834773979667 96 74 61
0.2531804517131161 0.2595598201787462 1.2637850035980576 73 86 95
0.2874397366969942 0.1167798203588459 1.2955572150343433 58 51 45
-0.3260444406302051 -0.0085205574473672 1.0489165840112207 91 73 71
-0.1770963490687504 0.2263573262663236 1.1387660913723798 54 67 86
-0.1770756056142950 0.1075050997229596 1.2149941006174914 81 70 64
-0.0205374422488096 -0.2252946353668229 1.4302926878679483 158 190 215
0.1375800147654363 0.1163099142295975 1.2724828476930625 83 76 60
-0.3898788394508597 0.0989142372376402 1.0180902134625092 153 140 121
-0.3695580879405790 0.2175588220994685 0.9969528259649866 36 43 49
0.1491225738050149 0.0976249674280117 1.2798833168293682 123 119 107
-0.3359321444142244 -0.0011298367088829 1.0466039531403231 158 158 156
-0.5603231907678834 0.2308509595384124 1.0696115339345917 249 244 241
0.2292538670512005 0.0310380883518226 1.3047975776619221 127 118 109
-0.3267797876094641 0.2143875309490034 1.1649160908209581 45 43 48
0.2871220916140504 0.1168981504485640 1.2953201325043766 58 51 45
-0.0074932210244917 -0.1197791714797173 1.2846752834954316 48 64 90
0.1085026018471703 0.0350670945459890 1.2859380634593511 56 71 102
-0.3247772316814890 0.0230276936293020 1.0437656675890350 95 81 72
-0.1909637624480615 0.0659277162111496 1.2164579852215920 137 138 132
0.1992230147672124 -0.1929663267169344 1.4603162985552480 79 89 114
-0.2685133424781626 0.0136673552649124 1.2122880978106556 121 113 100
-0.3211477045844734 0.1961367337198975 1.1698263048953550 96 101 105
-0.1914164277172841 0.0159779779962347 1.2271706199719581 134 125 116
-0.0485817258676843 -0.2980000061316271 1.4276869414436333 255 255 255
-0.3467189768999279 0.0227136214744864 1.0398585658026223 95 80 83
-0.3978293877337822 0.2259816804008229 0.9898071573614761 137 131 133
0.3284496440705079 0.0967234779204105 1.1532455250381060 137 121 106
-0.3464134937960505 0.0066119113568281 1.0424487333031465 77 68 69
-0.3668817443045274 0.2164558374865521 0.9961280655834513 80 83 118
-0.0049531918581569 0.0247975696490475 1.2337070931149865 63 78 109
-0.2537814469797048 -0.0115089441103222 1.2230715816297029 66 62 51
-0.3354219017379248 0.0333215951022341 1.0396050416695926 146 140 124
0.2736990921641008 0.0809319656623271 1.3075972570168273 124 122 125
-0.5093070414871854 0.2199172530502451 1.0393857275878893 224 216 195
-0.4206996291918492 0.1981771856035912 0.9887324575176355 84 84 92
0.3057275705358600 0.0930602214874860 1.2393238179394421 119 125 125
0.0312008732263435 -0.1531046066311095 1.3879656867602708 155 166 168
-0.3253129306607479 0.0060692279322591 1.0471315321796135 108 89 95
-0.2338759333493551 -0.0493082456483543 1.2362926212361092 130 122 120
-0.3354098506301867 0.0332936698571487 1.0395910117868887 146 140 124
-0.0681534775462025 0.0951529171918924 1.1914636001847911 94 90 81
-0.3697591890801836 0.2130616653907328 0.9992296158082713 143 138 135
0.3771087496893796 -0.0608106986861594 1.1955491301925258 151 155 141
0.0792377561488250 0.2770096508765904 1.2062596596226085 29 35 49
-0.0007368852057485 -0.1052186868727106 1.2521008950579926 105 87 75
0.3737840197561910 0.1911013227733508 1.1446591988036179 123 125 111
0.4269172034277970 0.1750892149768371 1.1565056499892514 125 123 111
-0.1064490566946906 -0.1623744286880027 1.3649783422969166 141 143 140
-0.3723229140388835 0.0995341210261264 1.0204318974064570 155 144 122
0.2292589618983553 0.2139144035066466 1.2697474765759793 97 99 96
0.3616330178216410 0.1733234937633325 1.1452862085740403 102 79 71
-0.2685206519124916 0.0291164844610978 1.2113424892654914 134 129 123
-0.3266655334598565 0.1967192976119210 1.1680186835684354 46 40 44
-0.1011974767690379 -0.2208823718985998 1.3761023200440941 200 200 202
-0.1154852722563803 0.0686921927548101 1.2327799772044170 123 118 112
-0.4102416418459783 0.1940373991889240 0.9929694180757316 165 156 127
0.1528713668304093 0.0267787476719380 1.2909381337693970 160 159 154
0.3198556541071331 -0.0013330483704367 1.1809413591814273 255 255 255
-0.1152067236100462 0.0349827948070366 1.2408549380270792 128 117 111
0.2949554674605847 0.0627212147752445 1.2921123040957299 106 119 127
0.1900710585530878 -0.1829105487325833 1.4534780430198246 67 93 126
-0.1424755048835066 0.0249152895625833 1.2517143800314423 56 66 93
-0.3934666753936926 0.2196786090535312 1.0016859090975903 45 49 58
0.2142341652715334 0.1552453816749157 1.2793753658361935 63 52 46
-0.3439412749449117 0.1838261536790333 1.0105066194152352 100 81 67
0.3093814897750873 -0.0432871318861059 1.2620487219741154 66 72 98
-0.3908815291616005 -0.2486394364936451 1.1620442383283154 255 254 255
0.0424328585618244 -0.0408074216813710 1.2575866480784594 33 51 71
0.2139781836621175 0.1888128128800424 1.2737729240926867 78 68 67
-0.1155909533335338 0.0180804055106476 1.2430117699005816 129 123 111
0.1231234031819834 0.1769707785250342 1.2586563486932707 107 108 100
-0.3212940349489443 0.1623240386837260 1.1770157191638650 113 115 112
0.1231053805689089 0.0588534905073569 1.2805323006720539 145 132 115
0.2143136047561351 0.1553072701263912 1.2795731152340064 63 52 46
-0.3313172725389615 0.1510652879195820 1.1649399694181211 129 148 146
-0.0363072371242185 -0.0482586595481439 1.2419970771532602 128 125 120
0.1231485604208010 0.1601540729248617 1.2615610996758584 116 115 110
0.1458224850278408 0.1798946141970072 1.2620963632616651 136 145 140
-0.4347380733689502 0.1142855227971585 1.0059349207427659 64 60 51
-0.2323181902938352 0.1377219473146868 1.2014258231156172 104 95 98
-0.1064133441930871 -0.1624295148433234 1.3647582188206993 141 143 140
0.2596002009905309 0.1727532192531524 1.2936878284951376 68 82 95
-0.0203534821777435 -0.0231385830250441 1.2278761759386940 130 118 106
0.2145705076987713 0.2049678489015671 1.2703826801013280 75 63 67
-0.3491209614414063 0.0908973276865083 1.0271495309059975 83 67 54
0.0189440696956928 -0.1858654714643564 1.3824394880614541 90 96 120
0.0354996970968667 -0.2121000804535564 1.4037835951096496 99 102 117
-0.2623746489401053 0.1812400319811590 1.1841471637180838 102 107 103
-0.4391130952157559 0.0885911631456879 1.0116861610628591 99 84 79
-0.4347380733689502 0.1142855227971585 1.0059349207427659 64 60 51
-0.4412320559267076 0.1131864681644611 1.0036793811856617 188 189 181
-0.3313594969689196 0.1266071085612798 1.1707281029082792 138 148 150
0.2289023535397370 0.1632052566440449 1.2804485470498994 140 147 140
-0.3491209614414063 0.0908973276865083 1.0271495309059975 83 67 54
0.3723525177500953 -0.0910329307528642 1.2028412764249750 125 100 96
-0.2527710708478344 0.2243957350828932 1.1262060722064309 54 66 88
0.4190149405869584 0.0571302090299866 1.1792064008209615 147 134 118
0.0608757235184370 0.2076197195889919 1.2065995002261760 116 125 124
-0.3437557788244666 -0.0436087671309493 1.0558787332533885 76 71 68
0.2137730206040818 0.0382867576792575 1.3018799721431900 87 69 67
0.4273645361405587 0.1047084576827688 1.1694928418747967 111 96 103
-0.1046508922109613 -0.2390772239991649 1.3774151511553276 149 143 143
-0.3213995789763311 0.1795194546556058 1.1736688010725145 104 108 111
-0.3901131566655553 0.2102497627049583 0.9952951974649656 144 142 129
0.2287855915013665 0.0458382905248738 1.3024476866165546 146 139 131
0.1526101549306040 0.1948020196395432 1.2605147111967141 109 108 103
-0.0478300549171264 0.1768653153953302 1.1905082516982224 101 97 96
0.2139314547311805 0.0522119665015527 1.2993018857243517 105 77 76
-0.1046508922109613 -0.2390772239991649 1.3774151511553276 149 143 143
0.2141347185466992 0.0695601352370949 1.2959006475618342 94 80 67
0.2760147550352860 0.1498231899130049 1.2920578635333815 115 115 117
0.2139344868899908 0.1887750821200837 1.2739967323949757 89 87 90
0.3476433463922759 0.2159646648186626 1.1315383593825261 126 128 125
0.1523688147077623 0.1769698393351478 1.2630085081891298 110 105 101
-0.3092293259826575 0.1650935055330142 1.0469153871460670 141 144 149
0.2140976935035008 0.1738369163079969 1.2761490867200198 79 65 64
0.2295051497380133 0.1973611498366137 1.2750838082584499 105 99 101
-0.0064222490294499 0.0454545791606798 1.2340222552316287 54 75 106
0.0886704842739262 0.0345431836965183 1.2833411775612005 59 77 101
-0.4391130952157559 0.0885911631456879 1.0116861610628591 99 84 79
0.3886288463080865 0.1475020414347725 1.1594266393944523 92 99 109
0.2289246504613705 0.0784511601643581 1.2969642812198798 132 127 123
-0.4415338776034063 0.1635212235247010 0.9951192866959266 159 147 125
0.1997094032786596 0.0449667792564146 1.2976449730673545 141 131 119
0.2140511544885314 0.1399029705622139 1.2814814151871106 77 66 64
0.0185105929446870 0.1242067088401461 1.2090941861430990 125 115 103
-0.3072099142508879 0.1281495424242114 1.0378309580999723 153 164 158
0.4196717990634725 0.0081434661343140 1.1864382550039720 144 131 122
0.1996203459813749 0.1633337678107754 1.2744048453296821 117 110 102
-0.3817905956542682 0.1392949275794901 1.0167890003961262 114 133 147
0.1929954399620423 -0.0351171875127623 1.3139786114700251 147 144 135
0.1989545004337205 0.1792167270410658 1.2699188748963597 108 105 100
0.1564662195544865 -0.0336626949047676 1.3063570056964491 154 154 142
0.3737968297412742 0.1734811881345749 1.1473767866346327 130 124 110
0.1229219734151330 0.0758473555474723 1.2765037537597863 135 126 111
0.3886288463080865 0.1475020414347725 1.1594266393944523 92 99 109
0.2136105425767690 0.0041078929184945 1.3085577297233970 112 88 84
-0.0058297715468343 0.0624758337499420 1.2290432280474921 87 113 148
0.1512722042800041 0.0934968561460940 1.2787982225906092 139 132 122
0.4378696852467543 0.1519763050090917 1.1634125909302615 153 158 138
0.1520825927783567 0.0426591382190725 1.2891498206494234 141 135 121
0.2139930721110516 0.1735789915866167 1.2765245542708237 103 90 99
-0.0248170844702020 0.0858996956122357 1.2196833253455424 54 69 88
-0.3211031615144900 0.1458869214906229 1.1797767655459555 116 117 109
-0.1318473954812548 0.1512170024974454 1.2247718080063805 99 117 131
-0.0248170844702020 0.0858996956122357 1.2196833253455424 54 69 88
-0.3265872201705826 0.1444032368617678 1.1779283420490656 62 52 53
0.4323359266291266 0.2284707877220915 1.1447747103045085 63 62 68
0.2958564156265017 0.0804980103721585 1.2895779021875706 114 117 122
0.4793383491179968 -0.0359445184599438 1.2024979482402773 133 117 101
0.2137345371686123 0.0380183254393888 1.3014277583442633 87 69 67
-0.3262864243295733 0.1506154247107293 1.0190328555845620 73 61 49
-0.1222358406540714 -0.0555106775536234 1.2587835278247426 142 145 136
-0.0998810226388824 -0.1050809959475620 1.3193978086166405 35 46 66
0.1997959112155943 0.0615849680565981 1.2938592713861814 136 123 115
0.3421649219225604 0.1806817435728519 1.1395486906512673 90 65 60
-0.3042923880903480 0.0607787053318744 1.0586797164184394 65 73 94
0.4793383491179968 -0.0359445184599438 1.2024979482402773 133 117 101
0.1990365201532217 0.0286581838111742 1.3001897651362422 133 124 117
-0.1986124953850196 -0.0579851976968080 1.2447752441266298 135 131 128
0.2049182856346463 0.1171329898951728 1.2846203253699946 127 115 101
0.3621064872549559 0.1804883806827842 1.1441359693619293 94 70 60
-0.3202749018192004 0.1674630417841778 1.0171293301767250 144 135 120
0.1080552129071143 0.0723864908031247 1.2807040106847232 86 106 139
0.2141662769570334 0.0244650419080949 1.3044395791751868 91 81 71
-0.4100892885949871 0.1650547924981095 1.0009285296216146 159 141 117
-0.3203681082215144 0.1507483725050800 1.0205322307120293 150 142 129
0.3025662412153329 0.0202556429746314 1.2607661516837032 132 134 131
0.0691917634692680 0.2404959464186027 1.2045266684288587 53 54 74
0.2013824912716772 0.2812578008404200 1.2321166172867972 23 28 47
-0.3264568972737655 0.0997216575524208 1.1865221520194686 73 60 52
-0.2267047067317041 0.2443918844907401 1.1791876238052281 93 101 124
0.2141662769570334 0.0244650419080949 1.3044395791751868 91 81 71
0.2136951498585984 0.0522362384942892 1.2993482665836715 98 79 85
0.1371844191705470 0.0004987345223391 1.2943923668341217 123 95 91
-0.3262864243295733 0.1506154247107293 1.0190328555845620 73 61 49
-0.3267362370961250 0.0792161023280618 1.1907280785741028 65 55 56
0.3233503538808162 0.2113811514235655 1.1284633334285465 126 131 127
0.3625512437410939 0.2266237619539116 1.1329448758793099 80 75 81
0.0069815318627880 -0.0692037308704589 1.2538259989565752 143 140 131
0.3421036219654079 0.1305550011412051 1.1491540819071180 124 102 91
0.1605585596140241 0.0469636199657443 1.2918682960170647 102 112 124
0.1225471446488230 0.0280654092581050 1.2851487611509529 126 119 113
0.0290483098779578 0.2083597938955803 1.1943547362288587 123 130 138
-0.3084673701598288 0.0738308792223605 1.1947649596469232 62 72 99
0.3012442559185005 -0.0034654517407715 1.2688453069910275 130 135 131
0.1371844191705470 0.0004987345223391 1.2943923668341217 123 95 91
0.1962013850338607 0.0016749595724092 1.3035983959688178 139 127 115
0.1962013850338607 0.0016749595724092 1.3035983959688178 139 127 115
0.3627419215400791 0.2264765563899593 1.1326884261341574 80 75 81
0.1225471446488230 0.0280654092581050 1.2851487611509529 126 119 113
-0.3213827395791624 0.1291512314807822 1.1832734451470339 107 107 95
-0.0048231533669864 -0.0772180545699600 1.2614448112654657 76 92 108
-0.4349369777868292 0.1472968035697589 0.9997020003112006 79 67 55
-0.3510997530608407 0.1491939387557256 1.0141195983712290 156 145 125
-0.3208062400760765 -0.0084239735868449 1.1442463895383446 163 164 156
-0.4408405406015480 0.1466593651430136 0.9975836402647070 160 148 132
-0.4100856474748399 0.1479009086612790 1.0041022965897504 158 143 122
0.3435591662905387 0.0773449382815526 1.1597868396572415 162 155 147
0.2665187495453449 -0.0416744367636936 1.3293326225947941 109 111 100
-0.3512012991419435 0.1663284402443644 1.0114330238476104 146 134 118
-0.3486531653488156 0.0784885439128550 1.0296661169031227 106 96 105
0.2104242561471074 0.2439070028569093 1.2210165237695771 18 26 37
-0.3205625575969505 0.1340109965817447 1.0235571654822799 151 140 122
0.1285210926310454 0.2724949973921820 1.1855214712418827 37 39 54
-0.3205923436547402 0.1015633491615031 1.1884320507548909 116 113 108
0.3233107536610846 0.2269778940715795 1.1320253698130693 45 48 67
-0.2143241228750946 0.0518225252213063 1.2276590779782979 64 80 114
0.2608544252692001 0.1974745003397599 1.2898863244301733 18 18 26
-0.3066848888168902 0.0575604107261124 1.0396741146539232 180 179 174
-0.0066307797808869 -0.0590574244178807 1.2517738676594368 63 94 140
0.3549657630321510 -0.1598605490391625 1.4062480474883186 252 251 249
0.3728041386483498 0.0207634041889840 1.1772469470074700 163 157 141
-0.3224581917595083 -0.0951829241606758 1.0809725782212920 112 135 169
0.2608100087181606 0.2287679882714413 1.2829326721880379 12 12 22
-0.2067878883769289 0.2439339740183487 1.1805031021124486 78 93 100
-0.3078144161366986 0.0447335817560238 1.0607559297767819 110 98 110
-0.1057692894844955 -0.2239746299832836 1.3754205455591697 107 104 115
-0.3895559178433831 0.1223791072434042 1.0189106937147940 106 114 127
-0.3214560245741692 0.0607616691989432 1.1960539588723882 130 126 117
-0.3895548753537260 0.1223358968182865 1.0189171663757448 106 114 127
0.4316537890325067 0.0161218060872764 1.1883835471664055 96 78 68
-0.3512832651685380 0.1158228358895683 1.0207585660469678 155 144 126
0.2145437334621314 0.2304028574545354 1.2650807758268392 73 63 72
-0.4101042172170872 0.1139112726244058 1.0103432710546079 150 138 114
0.3736279217789087 0.0531995015729705 1.1712147317908335 154 148 136
0.4568261453317478 0.0304602032591774 1.1908377688256433 125 107 103
0.1839012385599237 0.2259897265884052 1.2686091329495377 56 53 34
-0.4040908041012796 0.0766913784710989 1.0153927601941528 153 145 134
0.4560460780614922 0.1847557737814483 1.1631517358587391 96 74 76
0.2755349437325633 0.1655902603751970 1.2868091363583134 109 110 115
-0.4593773712585841 0.0633495154955878 1.0122857504692246 255 254 255
-0.3092415030071127 0.0453080268692289 1.0705839410281162 171 173 170
0.1070105685786461 0.1916111493866407 1.2597980191371900 45 42 33
-0.3514700199847908 0.1324217195280188 1.0179693714675948 156 145 123
-0.3200239737027404 0.1173215258268695 1.0267053185148729 154 148 136
-0.3096025488705842 0.0278405877752080 1.0739218915961366 177 176 182
-0.3513351094456603 0.0987534592562980 1.0240394087302047 152 145 126
-0.4101481685574401 0.0972090280042405 1.0139232378219105 155 143 131
0.3679806528441207 0.0544105922497582 1.1682244707683671 162 157 137
-0.4412457222704589 0.0961698884839177 1.0070739942351186 143 136 118
0.1069353016082258 0.2068878355276137 1.2568245687916999 45 36 29
-0.2136308585253237 0.0405155298729403 1.2288250580194602 101 124 158
-0.4101121131639610 0.1306340318627780 1.0070792401884503 155 146 129
0.4528387784256723 0.1669652242751376 1.1628511213685619 82 67 60
-0.3735403641866429 0.1226623671689074 1.0203131492302151 107 115 126
-0.0157096610581929 0.0361594064161117 1.2341762591615086 105 120 141
-0.3217283399674493 0.0078582617017592 1.1445625262603434 165 165 165
0.1843500447684671 0.1787549992331616 1.2786248529200677 67 59 38
-0.3204258821114117 0.1004427948813479 1.0299587574122047 153 145 122
-0.3735367837870302 0.1226600552363760 1.0204678687329478 107 115 126
-0.0283525692753551 -0.0331285112985453 1.2385467316188834 94 112 136
-0.0903084556809313 0.1063189128208669 1.1963418427747889 144 139 135
0.3041710984953296 0.1538229935927775 1.2340238818234963 101 103 98
-0.4106133685289288 0.0126934407031627 1.0301194684970376 147 149 135
0.3419856536122506 -0.0032134133483516 1.1740302964951501 139 106 99
-0.3517465797753921 -0.0188102237846322 1.0462226341415191 159 155 144
0.2962741059240165 0.1468965935819092 1.2801058297797554 110 115 118
0.0979352196044476 0.1664161627560238 1.2593837188783579 75 86 104
-0.3515079653179559 0.0310587679736702 1.0370749074156473 158 156 143
0.2964255904712002 0.1468779138944988 1.2799571436620869 110 115 118
-0.1709472444094535 0.1124248228652402 1.2149507808446627 93 79 76
0.0147632142449296 0.1666704551064163 1.2062581800446623 125 121 118
-0.4122511884390845 0.0885019516633880 1.0146107931147841 111 109 110
-0.4414038634287060 0.1299899461273249 1.0015491918705497 152 150 135
0.3742516997920939 0.1557925424894903 1.1519907673054568 137 123 110
-0.3211707772873561 0.0773934176841873 1.1922309383324972 120 126 114
0.3160124315757042 0.1411189281651871 1.1705358643494848 118 119 113
-0.3285406002549770 0.0550822344336559 1.0370259474205978 154 156 155
0.0143539348980550 0.1509767879926594 1.2086837737771323 134 127 119
-0.3203567547085145 0.0321354796265032 1.0427615443001683 159 156 151
-0.4122511884390845 0.0885019516633880 1.0146107931147841 111 109 110
-0.3615193926430929 0.0429652930302595 1.0320931154552087 153 142 136
-0.3226440841414162 -0.0267194344227022 1.0524982471997362 73 61 61
-0.0264426588145067 0.1294098929660167 1.2047733333846813 123 124 119
-0.3220103171307949 0.0327077005020426 1.1392326951017762 162 163 165
0.2849612037700601 -0.2112281416917084 1.4477374099248042 60 62 75
0.3370634977538245 0.1889325960128728 1.1371685382753707 129 131 126
-0.2595139632971142 0.1222297580252846 1.1956668599352118 93 83 92
0.0210617761912037 -0.0417998980471797 1.2491716397988428 97 101 113
0.4518281130755893 0.0470567474997441 1.1845459714714057 124 100 100
0.4568261453317478 0.0304602032591774 1.1908377688256433 125 107 103
0.3268645539525644 -0.0478735540852718 1.1790884539107322 165 181 204
-0.2595139632971142 0.1222297580252846 1.1956668599352118 93 83 92
-0.0894382215030524 -0.0464615567044683 1.2342824832472203 144 168 204
0.4052383053922768 0.1725630058645971 1.1591877289076198 28 26 27
-0.3039928777651753 0.1890374704351327 1.0158097547053813 95 98 107
-0.3267314832139245 0.0315499164657161 1.0415272292728097 87 76 70
0.3030726569322587 0.0358496593540031 1.2554731256474667 120 118 106
0.3040175907360405 0.0535114030816608 1.2536566912418350 110 114 100
0.3204129279440036 0.0855973540052915 1.1556817461243578 56 52 51
0.1236510297108479 0.0901003118796795 1.2728967497982699 135 125 115
-0.3499664939912392 -0.0269728537203689 1.0498680508056533 95 77 73
0.3736033835919587 0.0376363775709675 1.1756318406280504 164 150 137
-0.4104433708828650 0.0288538235999226 1.0266917790935106 151 153 142
0.1058545202568108 -0.0569103075323394 1.3035407798496599 75 88 107
0.2009152983226125 0.0939515529483973 1.2879864066782709 128 125 110
0.3153448685327774 0.0409190309508971 1.1887643904969061 134 130 118
0.3367398113063878 0.1723168350482555 1.1405278477092526 138 130 127
0.3039972560479640 0.0700015258045408 1.2505896192505404 113 123 125
-0.3802666758863908 0.2102147561929193 0.9950411620876831 143 133 123
0.4054177429863015 0.2038598114501137 1.1534991721220951 33 30 25
-0.3744006861889642 0.0600716518938332 1.0220178603431695 134 142 145
0.0880734305955017 0.0708413864780627 1.2747385297185798 57 75 95
0.3157047255212417 0.0311489057945384 1.1929627778951404 142 141 139
0.1046269048411801 -0.0408459599808959 1.3019811772745755 90 124 169
-0.0156590836515312 0.0361830561975464 1.2324290046289088 105 120 141
-0.3217283399674493 0.0078582617017592 1.1445625262603434 165 165 165
0.2849612037700601 -0.2112281416917084 1.4477374099248042 60 62 75
-0.1310367346241006 0.0157355940305645 1.2408348601211334 135 129 115
-0.3944303553701318 0.0596702862898702 1.0193698472010622 137 135 122
0.3992903784298575 0.0227267376958811 1.1869990301976585 56 85 115
0.2855942079934725 -0.1602384676567389 1.4387437072966172 99 99 109
0.4416890492260703 0.1756681426653172 1.1600396329739040 123 114 105
-0.3205056957849758 -0.0168432976901448 1.2096654268508997 133 121 97
0.2126572030777320 -0.0901631549079247 1.3743136091788342 28 43 72
0.0423206422815817 -0.0018131483876680 1.2437647754418613 161 150 132
0.2844719645067124 -0.2111676372672165 1.4462401304525465 60 62 75
-0.2759059022162719 -0.0472043174198959 1.2274856752585717 126 120 120
0.0060697840405999 0.0232057426096870 1.2321597675397591 152 141 123
-0.4441304416893788 0.1548800258716979 0.9951171856001536 156 152 127
-0.0895837882264947 -0.0459865233032082 1.2338686663980241 99 137 174
0.2824563918701581 -0.0260662647155605 1.3330578332571230 32 44 70
-0.3269473632797442 0.0286675176791312 1.2006133046164298 64 56 53
-0.3306955430153190 0.0703456826435123 1.1859389523954309 78 76 87
-0.4051008328639271 0.1914739127911266 0.9953701198512523 111 85 60
0.3343009868254535 -0.0899127512187300 1.2452447233649337 88 106 154
0.3343009868254535 -0.0899127512187300 1.2452447233649337 88 106 154
0.3416786537994290 0.1453167581880498 1.1463575970192932 88 66 53
-0.3204266940736913 0.0143955430637005 1.0459711499560267 154 159 153
0.2160593655354121 -0.0858450887355220 1.3712932285200652 117 144 163
-0.1743952304195917 -0.1071011666986155 1.3060152227818922 43 50 68
-0.3172008949584341 0.1592999720220794 1.0195849994571136 148 142 128
0.2126572030777320 -0.0901631549079247 1.3743136091788342 28 43 72
-0.3037833897655589 0.1891090872432906 1.0155229191986499 95 98 107
0.1903874952761333 -0.0909729179472958 1.3684993384102337 41 51 76
0.3391559412425638 0.1968978304067008 1.1354415665544757 89 69 68
-0.2623304197247234 0.1643568346816174 1.1873790198401704 109 110 104
-0.3204387135951218 0.1835746867277456 1.0135673047432414 141 130 124
0.4310474089781429 0.1670251414552726 1.1599100235777271 106 86 79
-0.3335047769949607 -0.0271161417393844 1.0518963559962937 84 71 65
0.3341965442570569 -0.1873038467650419 1.4583588538686325 255 252 250
-0.1672722901454401 0.1672148802857982 1.2045748350858201 112 114 111
-0.3815720469998937 0.1696457641031656 1.0107342318594548 119 135 148
-0.3017509703384703 -0.0867625516450008 1.2280950245277109 136 129 119
0.4532328049315784 0.1501081538787422 1.1666665715196574 96 75 72
-0.3229660075751895 -0.0603669607414847 1.0520084250521469 156 144 120
-0.0158953656742364 -0.0676324686048331 1.2530045147231450 73 90 106
-0.0931811403426113 0.2416607424527473 1.1671213386313204 87 103 119
-0.1674493931080770 0.2009322831191274 1.1979575788914969 106 102 103
0.3966327031471609 0.1478996252359774 1.1613630914427715 90 100 112
0.2855226170603968 -0.1601707242360514 1.4376808907095713 99 99 109
0.2849591719334760 -0.1950877049239021 1.4459921880482023 76 83 93
0.2858496308295257 0.1735972628022842 1.2892446407030547 72 60 64
-0.0929410631042308 0.2510334648635725 1.1654237585932785 95 113 151
-0.2626731179726010 0.1308710575008487 1.1936554904678458 121 121 111
-0.2620632504757424 0.1980648299642324 1.1808985377713257 98 104 102
-0.1701955395991368 -0.0048012965871148 1.2370285965653496 115 96 100
-0.2755985802668550 -0.0614388723328592 1.2298113344527766 129 124 121
0.3203023286925507 0.2228578513833935 1.1472308360278469 105 118 127
0.1333057907985811 0.2409697797636400 1.2082737157807324 27 35 38
0.0892923173432240 0.1914973118135960 1.2572164009383298 41 43 30
-0.3017509703384703 -0.0867625516450008 1.2280950245277109 136 129 119
-0.4443234096992009 0.2003362250468851 0.9835182925989562 157 135 111
0.1844176391908017 0.1463492554158804 1.2744509162427609 126 128 117
0.3254003302841750 0.2176979721995280 1.1274774788495883 121 125 128
0.2861637237190947 0.1915051201799656 1.2864643688505171 70 54 57
-0.0217234482790238 0.2137119603737910 1.1995809275141180 80 78 91
-0.1854783774308989 0.2006412856371602 1.1957817925540903 100 102 99
0.3395150152989757 0.1119361649179976 1.1512114327333278 102 79 71
-0.5103520762446295 0.2244287624225399 1.0371733758587613 129 107 96
-0.3267956972901467 0.0146708785097882 1.2029642082910870 65 57 46
0.4064914709227381 0.1246744475429773 1.1626334633350544 137 127 100
-0.0211934334227037 0.2062526771738583 1.1996901304855681 85 76 81
-0.1182867373213434 -0.1947414242711276 1.3971932799613009 56 60 87
-0.4437961697600194 0.1381201623858244 0.9981965699291658 149 143 129
0.2267370007828752 -0.1656296969269853 1.4538732549695135 64 79 122
-0.2624602846151238 0.1476583034304786 1.1907456001795595 113 109 106
-0.1674654140424020 0.1338578395701715 1.2111638436754897 129 122 116
0.0218063415723880 -0.0382043189104725 1.2489275760894836 61 65 74
-0.3610455657809953 0.1830931027240693 1.0056092008640238 141 142 137
0.3888724173375654 0.1243701759212775 1.1589320637559506 140 129 107
-0.2445180060868594 0.1315605268670924 1.1974502066038712 119 110 111
-0.1856208990878628 0.1665793855305430 1.2018874607794756 113 106 100
-0.1671196789519092 0.1843876864287753 1.2008638746968869 107 109 104
-0.3067749685151345 0.1973878803259005 1.0131176229060987 134 143 150
0.1305224933752499 0.1926144082571044 0.7627951174316225 243 246 225
0.3524208268778646 0.1734578443075771 1.1429867214916278 121 122 108
0.4326450733556645 0.1343503942662810 1.1667977115635866 87 78 73
-0.3142276339181896 -0.0295964532362737 1.2055891758475648 130 123 105
0.3212945332034963 0.1907711532461668 1.1476378918056584 110 121 123
0.1885016938118373 -0.0760034404229245 1.3172566975510078 153 150 141
-0.1673862591786284 0.1050436294128883 1.2165994188854081 128 122 106
0.1364545286762874 -0.0820232319580761 1.3532101418102602 88 98 123
-0.5901434048840958 0.2375882591747963 1.0572597093552456 255 254 250
0.3212945332034963 0.1907711532461668 1.1476378918056584 110 121 123
-0.0624616169797911 0.2120133584400487 1.1789517901990703 66 69 62
0.2859637830789125 0.1573128131248466 1.2923982005525541 69 58 62
0.4326591444008532 0.1344059351299821 1.1667348466127312 87 78 73
-0.0288494148311605 -0.0312204057241372 1.2309885786084287 88 91 106
-0.1857763509953244 0.1332656606402310 1.2073361402736087 121 124 117
-0.0306421179757259 -0.2456546865859228 1.4196478779195396 254 254 254
-0.4447148251123034 0.1216847925479634 1.0018948351781214 155 149 133
-0.1860733944331076 0.0650714453381272 1.2200315606070815 140 140 132
-0.2607934881534888 0.2126957886388641 1.1778154835851138 121 140 134
0.2511825670548983 0.1721829707273104 1.2889618621689261 65 78 97
-0.3542459264207831 0.1070621989440446 1.0222007914716185 153 147 125
-0.5915875170293712 0.2545378541434490 1.0712350818662795 255 255 227
0.3161746999454582 0.1500991270221344 1.1691544199559301 115 115 107
-0.2102620665643933 -0.0272131199347562 1.2231923911350528 140 131 114
